NCOLS 125
NROWS 111
XLLCORNER 4478435.0000000000
YLLCORNER 5718995.0000000000
CELLSIZE 10.000000
NODATA_VALUE -99999.000
1.203 1.206 1.177 1.082 0.936 0.793 0.710 0.719 0.808 0.900 1.137 0.982 0.908 1.606 1.666 1.674 1.622 1.599 1.632 1.628 1.589 1.603 1.578 1.546 1.557 1.570 1.568 1.574 1.616 1.592 1.586 1.603 1.625 1.609 1.575 1.586 1.566 1.530 1.568 1.582 1.529 1.513 1.522 1.516 1.484 1.436 1.435 1.452 1.400 1.373 1.417 1.419 1.331 1.266 1.228 1.228 1.214 1.179 1.190 1.186 1.117 1.094 1.124 1.144 1.285 1.321 1.204 1.093 1.038 1.015 1.164 0.853 0.795 0.708 0.640 0.683 0.931 1.201 1.074 0.681 0.638 0.688 0.872 1.043 1.102 0.896 0.670 0.698 0.612 0.583 0.704 0.823 0.805 0.688 0.660 0.493 0.351 0.763 0.655 0.822 0.806 0.792 0.677 0.630 0.617 0.618 0.608 0.597 0.592 0.597 0.588 0.588 0.577 0.558 0.471 0.545 0.650 0.586 0.432 0.607 0.558 0.636 0.578 0.447 0.514
1.113 1.109 1.072 0.998 0.892 0.761 0.639 0.614 0.757 0.840 1.062 1.129 0.946 1.603 1.672 1.639 1.610 1.618 1.646 1.629 1.602 1.615 1.594 1.574 1.581 1.592 1.589 1.602 1.634 1.608 1.609 1.631 1.643 1.615 1.594 1.594 1.568 1.564 1.591 1.579 1.536 1.535 1.543 1.529 1.483 1.430 1.462 1.473 1.400 1.396 1.425 1.375 1.287 1.243 1.223 1.242 1.228 1.218 1.217 1.170 1.102 1.093 1.194 1.365 1.401 1.280 1.189 1.048 0.977 1.210 0.947 0.445 0.738 0.727 0.639 0.589 0.578 0.998 1.274 1.098 0.644 0.618 0.581 0.537 1.003 1.231 0.880 0.678 0.828 0.681 0.659 0.795 0.815 0.774 0.642 0.397 0.400 0.398 1.223 1.141 0.882 0.753 0.657 0.621 0.621 0.627 0.615 0.599 0.594 0.585 0.571 0.566 0.562 0.565 0.564 0.566 0.572 0.541 0.510 0.585 0.577 0.661 0.614 0.601 0.577
1.069 1.013 0.906 0.817 0.692 0.552 0.317 0.462 0.693 0.917 1.002 1.253 1.376 1.428 1.614 1.581 1.606 1.608 1.683 1.663 1.669 1.656 1.629 1.612 1.611 1.618 1.618 1.651 1.662 1.634 1.645 1.671 1.662 1.627 1.622 1.624 1.592 1.598 1.623 1.605 1.565 1.568 1.571 1.547 1.505 1.465 1.497 1.481 1.415 1.419 1.436 1.354 1.263 1.228 1.246 1.285 1.261 1.235 1.230 1.196 1.113 1.209 1.418 1.479 1.308 1.285 1.188 0.994 0.941 0.823 0.886 0.842 0.709 0.711 0.705 0.596 0.579 0.553 0.998 1.282 1.138 0.670 0.572 0.577 0.610 0.798 0.962 0.959 1.027 0.964 0.844 0.790 0.763 0.741 0.695 0.592 0.313 0.440 1.311 0.774 0.855 0.721 0.640 0.629 0.644 0.624 0.608 0.597 0.586 0.575 0.569 0.575 0.563 0.563 0.561 0.551 0.546 0.554 0.577 0.625 0.695 0.635 0.586 0.515 0.557
1.092 1.065 0.939 0.706 0.451 0.323 0.274 0.618 0.855 1.049 1.177 1.307 1.360 1.312 1.608 1.545 1.633 1.697 1.707 1.669 1.700 1.674 1.641 1.630 1.643 1.646 1.656 1.690 1.685 1.666 1.681 1.699 1.684 1.660 1.663 1.655 1.629 1.653 1.664 1.630 1.591 1.604 1.609 1.576 1.519 1.497 1.515 1.474 1.444 1.459 1.442 1.344 1.280 1.252 1.296 1.311 1.299 1.265 1.216 1.140 1.176 1.423 1.578 1.562 1.395 1.273 0.836 0.788 0.872 0.713 0.718 0.829 0.860 0.751 0.713 0.666 0.584 0.498 0.543 1.003 1.298 1.195 0.703 0.584 0.555 0.652 0.740 0.837 0.898 1.073 1.109 0.936 0.723 0.753 0.783 0.324 0.502 0.820 1.255 0.922 0.797 0.694 0.651 0.654 0.631 0.625 0.619 0.602 0.594 0.572 0.565 0.571 0.566 0.565 0.553 0.541 0.547 0.554 0.548 0.568 0.600 0.582 0.545 0.453 0.431
1.113 1.091 1.058 0.907 0.682 0.728 0.691 0.892 1.098 1.190 1.285 1.366 1.357 1.489 1.527 1.687 1.774 1.770 1.709 1.697 1.701 1.678 1.654 1.654 1.644 1.653 1.690 1.722 1.719 1.707 1.726 1.743 1.721 1.699 1.704 1.691 1.685 1.700 1.693 1.651 1.637 1.652 1.641 1.585 1.523 1.524 1.532 1.487 1.476 1.494 1.451 1.361 1.295 1.288 1.348 1.357 1.304 1.182 1.205 1.442 1.568 1.675 1.635 1.364 0.798 0.744 0.823 0.787 0.686 0.676 0.797 0.830 0.885 0.922 0.957 0.865 0.678 0.589 0.478 0.488 1.021 1.328 1.196 0.708 0.635 0.592 0.640 0.746 0.838 0.880 0.999 1.117 1.121 0.920 0.577 0.438 0.467 1.377 1.031 0.851 0.765 0.693 0.676 0.650 0.644 0.640 0.611 0.601 0.578 0.550 0.560 0.566 0.565 0.560 0.562 0.538 0.530 0.525 0.541 0.542 0.536 0.570 0.502 0.539 0.602
1.140 1.136 1.111 1.090 1.016 0.942 1.008 1.158 1.250 1.311 1.367 1.425 1.485 1.590 1.606 1.600 1.637 1.765 1.753 1.760 1.742 1.709 1.693 1.665 1.668 1.724 1.763 1.776 1.767 1.759 1.776 1.773 1.747 1.744 1.747 1.731 1.727 1.738 1.722 1.685 1.671 1.672 1.644 1.581 1.534 1.554 1.549 1.504 1.509 1.522 1.443 1.358 1.322 1.364 1.361 1.247 1.131 1.475 1.640 1.674 1.659 1.458 0.593 0.878 0.973 0.764 0.768 0.827 0.753 0.740 0.827 0.871 0.903 0.962 1.050 1.029 0.918 0.769 0.589 0.523 0.535 1.140 1.346 1.125 0.682 0.641 0.660 0.686 0.679 0.766 0.779 0.751 0.897 1.134 1.219 0.654 0.159 1.317 0.774 0.843 0.740 0.714 0.694 0.679 0.658 0.634 0.618 0.590 0.551 0.551 0.563 0.574 0.577 0.576 0.542 0.525 0.540 0.539 0.527 0.534 0.571 0.558 0.576 0.644 0.538
1.232 1.199 1.184 1.202 1.200 1.204 1.226 1.270 1.334 1.386 1.421 1.466 1.502 1.539 1.638 1.618 1.642 1.689 1.733 1.747 1.767 1.770 1.766 1.764 1.786 1.810 1.818 1.809 1.801 1.798 1.803 1.791 1.780 1.783 1.775 1.759 1.758 1.755 1.728 1.691 1.675 1.669 1.632 1.583 1.551 1.574 1.556 1.534 1.544 1.497 1.380 1.325 1.306 1.315 1.247 1.389 1.664 1.729 1.617 1.351 0.730 0.943 0.931 0.764 0.838 0.844 0.789 0.875 0.829 0.786 0.895 0.921 0.940 0.995 1.058 1.064 1.069 0.970 0.734 0.638 0.583 0.591 1.124 1.335 1.183 0.846 0.671 0.619 0.596 0.722 0.718 0.661 0.588 0.656 0.710 0.873 1.226 1.287 0.896 0.811 0.751 0.723 0.707 0.705 0.688 0.652 0.620 0.588 0.562 0.573 0.582 0.582 0.577 0.584 0.563 0.540 0.511 0.519 0.524 0.545 0.559 0.595 0.607 0.538 0.570
1.196 1.141 1.189 1.299 1.371 1.367 1.345 1.389 1.442 1.453 1.479 1.513 1.550 1.597 1.626 1.662 1.647 1.670 1.739 1.738 1.736 1.763 1.807 1.830 1.833 1.831 1.823 1.819 1.816 1.815 1.823 1.809 1.798 1.803 1.794 1.780 1.763 1.746 1.708 1.670 1.669 1.659 1.633 1.582 1.579 1.593 1.554 1.521 1.478 1.334 1.226 1.212 1.446 1.446 1.654 1.655 1.552 1.214 0.593 0.974 0.918 0.768 0.972 0.890 0.791 0.862 0.838 0.867 0.855 0.818 0.930 0.984 0.970 1.045 1.106 1.106 1.114 1.091 0.884 0.742 0.677 0.646 0.662 0.829 1.143 1.300 1.151 0.755 0.695 0.728 0.713 0.663 0.591 0.666 0.515 0.424 1.246 1.343 0.903 0.825 0.783 0.734 0.726 0.725 0.702 0.670 0.640 0.587 0.579 0.579 0.567 0.583 0.588 0.556 0.526 0.507 0.518 0.527 0.539 0.561 0.567 0.555 0.546 0.578 0.650
1.600 1.509 1.427 1.362 1.434 1.488 1.479 1.504 1.519 1.515 1.525 1.560 1.591 1.629 1.642 1.667 1.696 1.709 1.712 1.723 1.719 1.759 1.801 1.825 1.831 1.823 1.818 1.819 1.817 1.820 1.830 1.816 1.816 1.820 1.803 1.775 1.747 1.712 1.656 1.655 1.664 1.651 1.613 1.572 1.558 1.508 1.425 1.357 1.284 1.425 1.423 1.638 1.643 1.428 1.343 0.908 0.765 1.056 1.005 0.939 0.983 0.921 0.901 0.924 0.853 0.887 0.913 0.920 0.902 0.894 0.986 1.012 1.039 1.113 1.143 1.142 1.153 1.131 1.001 0.875 0.768 0.749 0.717 0.697 0.772 0.933 1.233 1.204 0.906 0.880 0.800 0.734 0.644 0.681 0.595 0.462 1.214 1.341 0.956 0.845 0.782 0.750 0.719 0.731 0.747 0.713 0.642 0.586 0.580 0.572 0.579 0.569 0.541 0.527 0.526 0.530 0.519 0.515 0.533 0.543 0.557 0.559 0.546 0.538 0.545
1.582 1.567 1.549 1.569 1.677 1.698 1.621 1.574 1.538 1.564 1.627 1.632 1.622 1.640 1.663 1.691 1.711 1.708 1.708 1.711 1.717 1.751 1.782 1.799 1.811 1.815 1.810 1.814 1.812 1.818 1.831 1.822 1.826 1.813 1.782 1.749 1.708 1.631 1.592 1.626 1.617 1.584 1.507 1.445 1.398 1.415 1.481 1.473 1.613 1.669 1.514 1.122 0.785 0.776 0.861 1.061 1.028 0.974 0.984 0.976 0.934 0.945 0.955 0.942 0.921 0.909 0.949 0.970 0.947 0.946 1.078 1.093 1.106 1.184 1.200 1.195 1.217 1.153 1.002 0.963 0.885 0.811 0.778 0.772 0.820 0.850 0.814 0.947 0.929 1.100 1.159 0.902 0.719 0.763 0.671 0.501 1.185 1.336 1.011 0.866 0.805 0.741 0.748 0.787 0.778 0.733 0.656 0.611 0.593 0.580 0.574 0.562 0.560 0.534 0.531 0.525 0.509 0.512 0.523 0.537 0.542 0.538 0.527 0.546 0.553
1.558 1.593 1.623 1.651 1.657 1.644 1.666 1.697 1.727 1.761 1.760 1.735 1.702 1.680 1.672 1.699 1.732 1.722 1.709 1.712 1.724 1.747 1.753 1.767 1.797 1.804 1.797 1.804 1.802 1.817 1.823 1.819 1.822 1.794 1.747 1.673 1.570 1.484 1.554 1.668 1.679 1.639 1.609 1.599 1.637 1.702 1.573 1.248 1.206 1.193 0.780 0.753 0.968 0.974 0.968 1.014 1.052 0.980 0.939 0.987 0.973 0.963 0.981 0.956 0.947 0.937 0.958 0.998 0.990 0.970 1.117 1.195 1.190 1.238 1.266 1.265 1.277 1.182 0.983 0.969 0.927 0.875 0.830 0.819 0.826 0.843 0.885 0.924 0.877 0.863 0.845 0.926 0.899 0.904 0.965 0.731 1.193 1.346 1.028 0.897 0.836 0.806 0.788 0.801 0.801 0.745 0.668 0.616 0.610 0.602 0.604 0.596 0.558 0.538 0.547 0.529 0.520 0.520 0.524 0.520 0.531 0.534 0.538 0.547 0.544
1.564 1.597 1.638 1.681 1.662 1.660 1.687 1.711 1.743 1.748 1.752 1.757 1.754 1.712 1.655 1.711 1.783 1.793 1.769 1.721 1.715 1.741 1.732 1.748 1.775 1.779 1.781 1.782 1.797 1.820 1.815 1.810 1.790 1.727 1.621 1.504 1.383 1.678 1.810 1.831 1.745 1.673 1.662 1.546 1.077 0.829 1.057 0.996 0.871 1.034 1.193 1.161 0.946 0.876 0.965 1.016 1.036 1.032 0.969 0.967 0.970 0.975 0.992 0.975 0.981 0.968 0.971 1.003 1.007 1.016 1.157 1.243 1.262 1.289 1.303 1.341 1.344 1.213 0.978 0.967 0.954 0.898 0.856 0.848 0.856 0.868 0.889 0.905 0.903 0.882 0.817 0.748 0.767 0.744 0.809 1.035 1.358 1.343 1.060 0.880 0.821 0.843 0.827 0.828 0.801 0.780 0.690 0.651 0.634 0.605 0.622 0.596 0.571 0.570 0.559 0.553 0.552 0.538 0.528 0.529 0.533 0.528 0.525 0.521 0.522
1.571 1.567 1.592 1.632 1.652 1.691 1.728 1.759 1.740 1.720 1.742 1.748 1.753 1.708 1.681 1.744 1.760 1.733 1.720 1.685 1.690 1.727 1.714 1.710 1.737 1.750 1.754 1.770 1.793 1.787 1.771 1.755 1.694 1.596 1.663 1.634 1.834 1.883 1.716 1.366 1.311 1.175 1.127 1.059 1.022 1.021 1.084 1.232 1.237 1.260 1.259 0.942 0.867 0.929 0.960 1.021 1.027 1.044 1.013 0.973 0.961 0.977 0.992 0.979 0.998 0.982 0.997 1.030 1.012 1.033 1.225 1.288 1.296 1.349 1.388 1.396 1.376 1.245 1.007 0.992 0.960 0.888 0.833 0.878 0.895 0.874 0.957 0.965 0.858 0.837 0.846 0.775 0.789 0.824 0.707 0.927 1.360 1.310 1.048 0.997 0.903 0.849 0.837 0.828 0.845 0.820 0.719 0.676 0.637 0.618 0.618 0.590 0.575 0.568 0.567 0.571 0.562 0.551 0.560 0.558 0.550 0.531 0.524 0.528 0.523
1.480 1.549 1.616 1.661 1.677 1.687 1.694 1.708 1.723 1.732 1.736 1.726 1.705 1.655 1.639 1.665 1.693 1.711 1.698 1.659 1.662 1.683 1.652 1.641 1.655 1.664 1.686 1.719 1.728 1.743 1.776 1.773 1.735 1.821 1.839 1.729 1.624 1.232 1.070 1.049 1.135 1.127 1.155 1.239 1.249 1.247 1.272 1.261 1.312 1.363 1.185 0.874 0.814 0.938 0.980 1.015 1.025 1.062 1.024 0.986 0.988 0.979 0.985 0.960 0.981 0.977 1.005 1.041 1.024 1.066 1.256 1.327 1.359 1.419 1.445 1.465 1.421 1.208 1.025 1.070 0.989 0.895 0.815 0.835 0.905 0.864 0.935 0.985 0.875 0.882 0.929 0.903 0.807 0.741 0.742 0.930 1.262 1.172 1.064 1.135 1.025 0.991 0.968 0.932 0.847 0.738 0.741 0.702 0.663 0.640 0.613 0.587 0.575 0.561 0.557 0.561 0.558 0.564 0.570 0.575 0.574 0.567 0.568 0.556 0.534
1.372 1.424 1.503 1.569 1.602 1.646 1.676 1.696 1.700 1.695 1.677 1.655 1.615 1.580 1.588 1.623 1.640 1.641 1.600 1.555 1.564 1.559 1.527 1.582 1.631 1.715 1.772 1.792 1.822 1.882 1.883 1.784 1.601 1.446 1.248 1.001 0.941 1.032 1.150 1.183 1.210 1.220 1.190 1.189 1.205 1.220 1.289 1.360 1.411 1.424 1.072 0.855 0.863 0.958 0.987 1.023 1.040 1.079 1.049 0.999 0.998 0.994 1.000 0.978 0.954 0.951 0.995 1.048 1.032 1.115 1.332 1.391 1.429 1.479 1.526 1.530 1.391 1.124 1.000 1.101 1.075 0.941 0.805 0.850 0.871 0.845 0.949 0.925 0.872 0.951 0.990 1.005 0.965 0.886 0.694 0.859 1.139 1.101 1.086 1.105 1.120 1.102 1.023 0.994 0.957 0.887 0.788 0.768 0.727 0.611 0.616 0.609 0.588 0.565 0.571 0.567 0.553 0.557 0.568 0.575 0.573 0.582 0.582 0.575 0.568
1.326 1.356 1.411 1.446 1.474 1.479 1.436 1.429 1.401 1.315 1.291 1.260 1.254 1.354 1.442 1.488 1.494 1.448 1.354 1.347 1.399 1.489 1.655 1.742 1.814 1.887 1.858 1.758 1.725 1.507 0.901 1.070 0.963 0.915 0.983 0.955 1.019 1.014 1.079 1.209 1.171 1.166 1.180 1.209 1.250 1.265 1.347 1.449 1.525 1.431 0.968 0.880 0.919 1.000 1.023 1.035 1.049 1.080 1.070 1.031 1.031 1.020 1.021 1.026 1.018 0.960 1.016 1.083 1.085 1.230 1.413 1.461 1.488 1.546 1.575 1.444 1.186 1.024 1.028 1.168 1.163 1.019 0.837 0.843 0.875 0.854 0.921 0.887 0.865 0.977 1.040 1.088 1.102 1.047 0.880 0.880 1.023 1.053 1.141 1.096 1.090 1.119 1.056 1.068 1.052 0.980 0.901 0.817 0.778 0.733 0.619 0.545 0.545 0.567 0.581 0.575 0.561 0.572 0.572 0.558 0.561 0.569 0.567 0.573 0.584
1.311 1.338 1.383 1.397 1.381 1.348 1.315 1.273 1.210 1.179 1.212 1.206 1.201 1.259 1.274 1.238 1.127 0.906 0.957 1.314 1.639 1.741 1.820 1.822 1.678 1.379 1.261 1.282 0.977 0.825 0.967 1.121 1.046 0.974 0.957 0.776 0.908 1.033 1.239 1.208 1.194 1.180 1.198 1.248 1.335 1.396 1.483 1.577 1.603 1.157 0.914 0.907 0.944 1.004 1.032 1.044 1.069 1.092 1.071 1.035 1.056 1.049 1.077 1.077 1.075 1.061 1.150 1.204 1.199 1.303 1.476 1.528 1.529 1.518 1.341 1.171 1.109 1.093 1.148 1.282 1.264 1.105 0.876 0.821 0.812 0.782 0.889 0.908 0.908 0.982 1.044 1.124 1.180 1.168 1.032 0.958 1.012 1.008 1.062 1.122 1.220 1.229 1.088 1.014 1.019 1.017 1.032 0.959 0.821 0.751 0.701 0.629 0.568 0.553 0.541 0.545 0.559 0.580 0.569 0.565 0.570 0.562 0.553 0.559 0.564
1.337 1.361 1.390 1.388 1.370 1.342 1.285 1.239 1.262 1.265 1.259 1.285 1.313 1.318 1.326 1.211 0.850 1.299 1.658 1.806 1.728 1.508 1.390 0.838 0.705 0.934 1.077 1.155 1.146 1.040 1.021 0.954 0.861 0.963 0.421 0.894 0.896 0.923 1.203 1.187 1.206 1.238 1.283 1.367 1.473 1.559 1.629 1.679 1.441 0.919 0.875 0.902 0.948 1.003 1.026 1.040 1.065 1.102 1.093 1.055 1.076 1.076 1.119 1.136 1.176 1.203 1.288 1.327 1.294 1.379 1.530 1.482 1.354 1.235 1.107 1.095 1.121 1.161 1.268 1.377 1.347 1.198 0.919 0.722 0.709 0.716 0.826 0.888 0.917 0.991 1.066 1.141 1.214 1.230 1.104 1.109 1.048 0.868 0.991 1.119 1.250 1.315 1.267 1.156 1.065 1.019 1.003 1.006 0.922 0.831 0.754 0.689 0.631 0.566 0.541 0.542 0.544 0.534 0.547 0.558 0.564 0.562 0.545 0.552 0.556
1.353 1.383 1.408 1.412 1.376 1.313 1.316 1.319 1.298 1.298 1.317 1.355 1.430 1.484 1.378 1.245 1.700 1.742 1.315 0.361 0.966 1.324 1.268 1.226 1.128 1.093 1.152 1.144 1.022 0.909 0.952 1.018 0.907 0.600 0.791 0.904 0.909 0.936 1.159 1.176 1.268 1.373 1.462 1.567 1.658 1.702 1.696 1.520 1.067 0.897 0.870 0.887 0.935 0.997 1.012 1.027 1.059 1.111 1.113 1.098 1.136 1.113 1.161 1.230 1.280 1.348 1.419 1.411 1.336 1.347 1.383 1.222 1.154 1.108 1.079 1.105 1.139 1.240 1.353 1.446 1.423 1.245 0.926 0.681 0.649 0.706 0.789 0.857 0.913 0.979 1.053 1.161 1.249 1.228 1.103 1.211 1.121 0.488 0.897 1.129 1.287 1.310 1.271 1.223 1.195 1.180 1.152 1.078 0.934 0.834 0.825 0.750 0.699 0.667 0.601 0.553 0.544 0.546 0.536 0.527 0.534 0.523 0.548 0.588 0.584
1.433 1.455 1.465 1.466 1.444 1.411 1.387 1.379 1.369 1.372 1.438 1.585 1.630 1.538 1.669 1.723 1.334 0.857 1.022 1.303 1.338 1.263 1.204 1.158 1.138 1.143 1.189 1.153 1.052 0.956 0.970 0.960 0.834 0.386 0.864 0.914 0.895 0.975 1.131 1.234 1.455 1.592 1.663 1.721 1.742 1.684 1.437 1.117 1.026 0.921 0.881 0.886 0.930 0.999 1.001 1.015 1.054 1.109 1.119 1.139 1.190 1.177 1.264 1.339 1.375 1.432 1.474 1.378 1.138 1.170 1.199 1.100 1.105 1.094 1.085 1.145 1.211 1.332 1.436 1.491 1.452 1.283 0.897 0.696 0.652 0.703 0.802 0.868 0.942 1.003 1.057 1.187 1.277 1.180 1.065 1.319 1.474 0.307 0.674 1.047 1.252 1.308 1.297 1.280 1.255 1.218 1.199 1.173 1.153 1.019 0.844 0.819 0.763 0.772 0.678 0.559 0.618 0.566 0.476 0.533 0.550 0.542 0.552 0.526 0.545
1.573 1.572 1.554 1.521 1.486 1.475 1.478 1.493 1.471 1.498 1.620 1.637 1.704 1.792 1.599 0.837 0.959 1.231 1.198 1.193 1.204 1.219 1.242 1.261 1.261 1.254 1.258 1.253 1.167 1.022 0.969 0.810 0.663 0.713 0.888 0.916 0.857 1.087 1.242 1.476 1.660 1.718 1.745 1.699 1.584 1.344 1.099 1.045 1.047 0.968 0.903 0.885 0.911 0.998 1.009 1.016 1.044 1.120 1.139 1.174 1.257 1.272 1.359 1.392 1.389 1.416 1.400 1.209 1.054 1.122 1.154 1.090 1.103 1.101 1.114 1.206 1.319 1.436 1.493 1.505 1.459 1.302 0.835 0.741 0.746 0.719 0.782 0.869 0.944 1.033 1.094 1.226 1.266 1.136 1.047 1.431 1.549 0.293 0.611 0.964 1.199 1.271 1.291 1.287 1.278 1.269 1.240 1.207 1.197 1.202 1.165 0.973 0.735 0.729 0.774 0.806 0.776 0.465 0.431 0.638 0.498 0.475 0.526 0.541 0.591
1.639 1.597 1.557 1.540 1.542 1.523 1.514 1.555 1.565 1.557 1.704 1.859 1.828 1.046 0.960 1.114 1.230 1.186 1.170 1.208 1.255 1.276 1.275 1.293 1.310 1.333 1.360 1.356 1.244 1.070 0.903 0.932 0.338 0.847 0.901 0.917 0.789 1.282 1.525 1.675 1.732 1.733 1.600 1.405 1.313 1.151 1.088 1.066 1.051 1.003 0.947 0.914 0.901 0.990 1.006 1.042 1.071 1.137 1.162 1.218 1.339 1.349 1.416 1.376 1.302 1.346 1.292 1.145 1.093 1.125 1.143 1.079 1.099 1.110 1.163 1.292 1.415 1.520 1.538 1.527 1.478 1.116 0.818 0.810 0.836 0.775 0.755 0.850 0.933 1.023 1.118 1.254 1.200 1.087 1.056 1.294 1.584 1.423 0.814 0.662 1.124 1.248 1.268 1.290 1.288 1.292 1.256 1.208 1.225 1.242 1.215 1.190 1.116 0.917 0.764 0.707 0.717 0.716 0.802 0.707 0.460 0.504 0.521 0.484 0.472
1.628 1.620 1.619 1.608 1.592 1.595 1.642 1.652 1.695 1.882 1.919 1.607 0.932 1.006 1.225 1.176 1.197 1.224 1.220 1.262 1.299 1.306 1.333 1.374 1.398 1.416 1.467 1.439 1.314 1.120 0.866 0.484 0.779 0.895 0.911 0.924 0.612 1.541 1.704 1.745 1.717 1.526 1.243 1.242 1.223 1.114 1.071 1.068 1.048 1.003 0.975 0.970 0.931 0.992 1.014 1.054 1.118 1.161 1.195 1.301 1.414 1.396 1.373 1.261 1.228 1.267 1.217 1.136 1.138 1.152 1.136 1.073 1.101 1.163 1.270 1.414 1.497 1.568 1.564 1.556 1.385 0.930 0.834 0.861 0.894 0.865 0.779 0.814 0.927 1.031 1.128 1.223 1.105 1.032 1.041 1.135 1.687 1.492 1.090 0.664 0.997 1.158 1.206 1.235 1.268 1.260 1.234 1.242 1.283 1.279 1.255 1.262 1.240 1.156 1.084 0.952 0.749 0.732 0.703 0.698 0.679 0.665 0.598 0.498 0.471
1.701 1.705 1.699 1.692 1.709 1.712 1.727 1.876 1.944 1.895 0.885 0.951 1.122 1.155 1.164 1.205 1.247 1.272 1.290 1.327 1.360 1.378 1.420 1.443 1.477 1.554 1.577 1.494 1.317 0.924 0.770 0.707 0.880 0.911 0.925 0.884 1.348 1.715 1.764 1.727 1.558 1.135 1.069 1.166 1.145 1.045 1.038 1.068 1.070 1.023 0.977 0.992 0.986 1.017 1.052 1.089 1.143 1.186 1.259 1.365 1.423 1.344 1.284 1.253 1.238 1.182 1.130 1.121 1.141 1.163 1.169 1.123 1.143 1.235 1.388 1.514 1.569 1.609 1.601 1.514 1.088 0.885 0.861 0.880 0.919 0.936 0.856 0.844 0.930 1.058 1.183 1.217 1.024 0.991 1.063 1.035 1.361 1.589 1.230 1.237 0.970 1.014 1.137 1.247 1.261 1.220 1.197 1.235 1.280 1.299 1.307 1.310 1.292 1.242 1.187 1.138 1.066 0.971 0.835 0.711 0.721 0.704 0.658 0.601 0.566
1.755 1.746 1.741 1.723 1.681 1.829 1.941 1.944 1.476 0.934 0.992 1.121 1.032 1.118 1.213 1.263 1.299 1.329 1.362 1.400 1.431 1.469 1.487 1.531 1.623 1.663 1.606 1.450 1.117 0.919 0.441 0.903 0.929 0.922 0.938 0.622 1.665 1.774 1.749 1.639 1.248 0.868 0.960 1.066 1.052 1.006 1.002 1.050 1.085 1.062 1.017 1.012 1.023 1.069 1.100 1.151 1.198 1.250 1.336 1.391 1.321 1.209 1.246 1.307 1.228 1.127 1.109 1.096 1.129 1.146 1.167 1.174 1.242 1.362 1.493 1.578 1.616 1.650 1.578 1.151 0.949 0.888 0.875 0.888 0.928 0.965 0.920 0.894 0.967 1.094 1.195 1.171 1.021 0.995 1.097 1.126 1.031 1.448 1.606 0.978 1.218 0.954 1.056 1.180 1.226 1.205 1.200 1.232 1.281 1.317 1.334 1.341 1.339 1.321 1.301 1.250 1.171 1.099 1.012 0.969 0.872 0.694 0.664 0.682 0.683
1.763 1.735 1.655 1.740 1.924 1.953 1.812 0.913 0.967 1.170 1.014 1.011 1.068 1.172 1.277 1.342 1.361 1.384 1.413 1.432 1.481 1.529 1.594 1.675 1.703 1.660 1.553 1.315 0.837 0.467 0.872 0.914 0.931 0.929 0.891 1.376 1.744 1.771 1.692 1.436 0.900 0.811 0.915 1.032 0.999 0.966 0.970 1.007 1.083 1.099 1.058 1.053 1.053 1.102 1.144 1.195 1.241 1.310 1.384 1.330 1.186 1.176 1.261 1.267 1.199 1.130 1.115 1.106 1.126 1.154 1.183 1.245 1.355 1.463 1.562 1.619 1.649 1.647 1.330 0.963 0.935 0.916 0.882 0.896 0.936 0.969 0.940 0.924 0.996 1.122 1.206 1.121 1.009 1.018 1.138 1.171 1.141 1.006 1.443 1.595 1.074 1.147 1.036 1.100 1.187 1.240 1.230 1.229 1.275 1.320 1.336 1.348 1.359 1.356 1.341 1.321 1.298 1.229 1.123 1.057 1.040 0.996 0.918 0.762 0.587
1.586 1.613 1.869 1.941 1.858 1.023 0.982 1.117 1.102 0.993 1.012 1.052 1.144 1.267 1.359 1.385 1.389 1.408 1.421 1.468 1.530 1.614 1.708 1.726 1.686 1.586 1.427 0.942 0.807 0.835 0.937 0.928 0.924 0.929 0.864 1.510 1.719 1.735 1.548 1.047 0.737 0.823 0.920 1.018 0.992 0.933 0.947 0.970 1.024 1.075 1.079 1.111 1.115 1.110 1.149 1.223 1.286 1.360 1.376 1.243 1.148 1.177 1.226 1.225 1.164 1.092 1.082 1.123 1.140 1.173 1.234 1.314 1.455 1.538 1.613 1.650 1.657 1.527 1.056 0.942 0.951 0.942 0.922 0.922 0.953 0.995 0.959 0.941 1.014 1.131 1.201 1.084 1.004 1.044 1.134 1.212 1.245 1.157 0.964 1.180 1.548 1.206 1.111 1.106 1.150 1.220 1.241 1.254 1.281 1.310 1.332 1.346 1.350 1.359 1.370 1.369 1.371 1.314 1.193 1.147 1.135 1.107 1.085 1.036 0.950
1.832 1.877 1.870 1.269 1.006 1.087 1.228 1.056 1.018 1.015 1.040 1.123 1.253 1.356 1.379 1.388 1.410 1.408 1.432 1.507 1.607 1.717 1.753 1.716 1.642 1.518 1.168 0.807 0.695 0.930 0.933 0.947 0.948 0.933 1.116 1.650 1.772 1.736 1.371 0.894 0.764 0.831 0.943 1.031 1.001 0.936 0.913 0.958 1.013 1.060 1.103 1.165 1.179 1.179 1.190 1.225 1.263 1.340 1.302 1.203 1.163 1.155 1.209 1.247 1.205 1.128 1.093 1.101 1.158 1.206 1.282 1.421 1.546 1.606 1.651 1.649 1.599 1.263 1.001 0.963 0.994 0.984 0.966 0.977 0.989 1.020 0.990 0.973 1.043 1.144 1.191 1.065 0.998 1.068 1.154 1.203 1.296 1.269 1.081 0.943 0.984 1.525 1.256 1.098 1.093 1.168 1.250 1.271 1.276 1.310 1.343 1.360 1.351 1.330 1.353 1.381 1.365 1.341 1.314 1.275 1.219 1.193 1.186 1.159 1.152
1.681 1.364 0.983 1.048 1.300 1.204 1.111 1.040 1.009 1.050 1.112 1.229 1.342 1.373 1.387 1.401 1.394 1.414 1.475 1.591 1.716 1.778 1.757 1.687 1.606 1.363 0.762 0.792 0.928 0.932 0.942 0.939 0.948 0.941 1.469 1.751 1.810 1.686 0.963 0.708 0.791 0.834 0.916 1.061 1.014 0.969 0.944 0.946 1.000 1.054 1.118 1.205 1.240 1.238 1.258 1.285 1.271 1.220 1.193 1.159 1.139 1.152 1.222 1.257 1.217 1.149 1.127 1.133 1.192 1.312 1.420 1.517 1.598 1.622 1.646 1.643 1.433 1.100 0.992 0.966 0.998 1.024 1.023 1.043 1.059 1.061 1.016 1.002 1.062 1.158 1.179 1.040 0.991 1.074 1.162 1.214 1.258 1.249 1.154 1.055 0.994 0.965 1.527 1.341 0.906 1.057 1.182 1.265 1.300 1.319 1.334 1.348 1.352 1.358 1.370 1.362 1.352 1.356 1.347 1.328 1.282 1.241 1.225 1.215 1.217
0.930 1.037 1.233 1.237 1.170 1.154 1.106 1.044 1.005 1.071 1.209 1.312 1.379 1.383 1.397 1.387 1.388 1.455 1.574 1.704 1.780 1.788 1.729 1.644 1.528 0.938 0.664 0.855 0.937 0.942 0.952 0.950 0.964 1.100 1.580 1.767 1.812 1.535 0.846 0.751 0.798 0.836 0.870 1.025 1.005 0.953 0.956 0.956 1.011 1.059 1.116 1.220 1.275 1.298 1.331 1.352 1.308 1.121 1.054 1.050 1.065 1.115 1.232 1.294 1.227 1.164 1.151 1.170 1.248 1.391 1.492 1.579 1.624 1.636 1.678 1.530 1.186 1.060 1.026 1.011 1.003 1.024 1.053 1.105 1.125 1.123 1.062 1.030 1.096 1.166 1.172 1.038 0.987 1.071 1.143 1.201 1.235 1.194 1.162 1.084 1.079 1.037 1.414 1.415 0.750 0.807 1.093 1.221 1.309 1.315 1.321 1.343 1.385 1.426 1.404 1.343 1.314 1.313 1.329 1.322 1.289 1.275 1.265 1.261 1.261
1.311 1.306 1.224 1.146 1.132 1.123 1.107 1.056 1.032 1.129 1.275 1.356 1.387 1.384 1.391 1.402 1.440 1.539 1.678 1.771 1.803 1.779 1.709 1.640 1.297 0.808 0.824 0.926 0.917 0.930 0.939 0.966 0.991 1.312 1.630 1.797 1.785 1.411 0.783 0.771 0.828 0.853 0.883 0.993 0.991 0.942 0.962 0.963 1.000 1.057 1.120 1.234 1.311 1.355 1.400 1.431 1.320 1.066 1.001 0.996 0.992 1.074 1.247 1.272 1.210 1.186 1.184 1.222 1.358 1.509 1.584 1.642 1.663 1.658 1.603 1.226 1.096 1.085 1.042 1.041 1.026 1.026 1.050 1.138 1.171 1.149 1.102 1.079 1.135 1.194 1.164 1.028 0.991 1.074 1.141 1.186 1.206 1.157 1.140 1.078 1.072 1.084 1.077 1.576 1.326 1.125 0.982 1.171 1.281 1.295 1.318 1.367 1.409 1.407 1.374 1.360 1.343 1.316 1.304 1.289 1.261 1.249 1.246 1.254 1.271
1.212 1.244 1.247 1.180 1.130 1.139 1.113 1.043 1.060 1.207 1.313 1.372 1.406 1.407 1.412 1.440 1.513 1.651 1.760 1.812 1.814 1.774 1.706 1.510 0.902 0.698 0.903 0.914 0.939 0.926 0.923 0.962 1.047 1.373 1.681 1.807 1.737 1.366 0.769 0.795 0.854 0.874 0.921 0.996 0.989 0.948 0.947 0.982 1.012 1.051 1.116 1.242 1.357 1.413 1.467 1.457 1.262 1.027 1.007 1.019 1.024 1.076 1.225 1.224 1.158 1.181 1.235 1.331 1.491 1.610 1.640 1.656 1.652 1.610 1.332 1.084 1.076 1.085 1.050 1.050 1.050 1.042 1.060 1.147 1.192 1.154 1.111 1.111 1.171 1.216 1.157 1.030 1.005 1.087 1.146 1.192 1.191 1.124 1.135 1.052 1.011 1.082 1.043 1.417 1.591 0.859 0.866 1.086 1.227 1.305 1.331 1.366 1.398 1.380 1.354 1.358 1.343 1.318 1.317 1.288 1.239 1.218 1.228 1.241 1.242
1.122 1.179 1.241 1.236 1.169 1.124 1.120 1.116 1.169 1.261 1.312 1.377 1.450 1.459 1.445 1.509 1.631 1.742 1.808 1.832 1.813 1.745 1.645 1.139 0.676 0.865 0.891 0.909 0.919 0.922 0.927 0.925 1.085 1.446 1.737 1.806 1.713 1.351 0.826 0.829 0.866 0.876 0.939 0.990 0.983 0.966 0.940 0.963 1.005 1.035 1.109 1.273 1.393 1.458 1.494 1.452 1.249 1.022 0.991 1.039 1.071 1.109 1.186 1.195 1.149 1.206 1.300 1.460 1.606 1.660 1.646 1.646 1.613 1.471 1.100 1.017 1.076 1.098 1.064 1.059 1.076 1.072 1.095 1.185 1.194 1.139 1.113 1.144 1.200 1.220 1.134 1.031 1.026 1.115 1.161 1.191 1.189 1.131 1.136 1.050 0.959 1.040 1.048 1.126 1.637 1.326 1.129 1.037 1.221 1.321 1.351 1.354 1.341 1.334 1.327 1.336 1.344 1.326 1.303 1.276 1.231 1.223 1.253 1.267 1.268
1.118 1.173 1.245 1.247 1.183 1.129 1.173 1.243 1.303 1.312 1.362 1.450 1.498 1.483 1.508 1.616 1.725 1.797 1.835 1.830 1.785 1.701 1.451 0.964 0.853 0.921 0.912 0.922 0.907 0.926 0.927 0.902 1.065 1.534 1.768 1.807 1.722 1.317 0.817 0.851 0.861 0.859 0.950 0.971 0.971 0.966 0.949 0.955 0.987 1.024 1.121 1.311 1.423 1.470 1.490 1.413 1.156 1.042 1.091 1.134 1.174 1.201 1.199 1.176 1.186 1.270 1.425 1.595 1.651 1.672 1.650 1.624 1.531 1.226 0.995 0.969 1.040 1.089 1.078 1.069 1.096 1.107 1.144 1.228 1.191 1.130 1.116 1.156 1.217 1.221 1.127 1.028 1.044 1.132 1.177 1.189 1.195 1.153 1.136 1.068 0.950 0.994 1.041 1.114 1.373 1.577 1.526 0.838 1.226 1.331 1.338 1.304 1.281 1.299 1.327 1.343 1.327 1.310 1.283 1.227 1.205 1.229 1.260 1.287 1.294
1.193 1.219 1.224 1.230 1.253 1.248 1.308 1.354 1.367 1.426 1.466 1.505 1.534 1.541 1.617 1.704 1.777 1.819 1.828 1.808 1.737 1.607 1.083 0.685 0.952 0.913 0.939 0.931 0.929 0.927 0.914 0.882 1.038 1.651 1.793 1.812 1.687 1.283 0.867 0.859 0.838 0.821 0.917 0.948 0.953 0.956 0.942 0.945 0.992 1.064 1.184 1.344 1.422 1.431 1.433 1.309 1.097 0.944 0.969 1.089 1.196 1.227 1.221 1.257 1.294 1.400 1.515 1.679 1.615 1.638 1.599 1.524 1.390 1.095 0.945 0.938 1.000 1.058 1.073 1.069 1.114 1.146 1.181 1.248 1.184 1.124 1.145 1.185 1.218 1.194 1.117 1.036 1.062 1.148 1.189 1.187 1.196 1.165 1.124 1.090 0.981 0.972 1.054 1.059 1.064 1.724 1.411 0.804 1.206 1.261 1.289 1.307 1.339 1.328 1.293 1.289 1.272 1.252 1.227 1.233 1.242 1.246 1.278 1.292 1.288
1.221 1.219 1.247 1.304 1.358 1.391 1.411 1.424 1.475 1.520 1.542 1.583 1.597 1.630 1.682 1.745 1.795 1.822 1.812 1.766 1.667 1.347 0.955 0.904 0.920 0.940 0.936 0.937 0.939 0.920 0.910 0.842 1.191 1.723 1.795 1.848 1.633 1.320 0.995 0.854 0.815 0.781 0.856 0.901 0.915 0.925 0.914 0.923 1.015 1.121 1.254 1.373 1.402 1.376 1.346 1.187 1.018 0.940 0.855 0.941 1.040 1.082 1.083 1.114 1.182 1.194 1.626 1.756 1.515 1.581 1.498 1.446 1.332 1.060 0.925 0.915 0.968 1.034 1.058 1.028 1.075 1.162 1.226 1.247 1.175 1.129 1.167 1.211 1.210 1.169 1.105 1.045 1.072 1.160 1.199 1.183 1.207 1.188 1.110 1.087 1.032 0.981 1.096 1.126 1.104 1.763 1.436 0.766 1.169 1.245 1.280 1.312 1.320 1.298 1.301 1.293 1.251 1.230 1.208 1.222 1.277 1.304 1.351 1.367 1.347
1.284 1.295 1.339 1.400 1.463 1.469 1.440 1.474 1.538 1.577 1.621 1.645 1.650 1.663 1.707 1.767 1.805 1.811 1.784 1.726 1.572 1.061 0.751 0.935 0.884 0.932 0.944 0.943 0.934 0.927 0.922 0.756 1.464 1.791 1.881 1.862 1.509 1.277 1.058 0.855 0.786 0.735 0.771 0.832 0.863 0.886 0.884 0.907 1.042 1.165 1.283 1.376 1.391 1.351 1.261 1.065 0.962 0.933 0.993 1.095 1.116 1.145 1.094 1.072 1.192 1.264 1.725 1.693 1.459 1.489 1.427 1.423 1.322 1.078 0.930 0.903 0.932 1.027 1.089 0.961 0.946 1.115 1.231 1.233 1.162 1.150 1.185 1.214 1.207 1.169 1.111 1.064 1.119 1.193 1.181 1.176 1.221 1.178 1.095 1.081 1.072 1.028 1.125 1.206 1.106 1.783 1.521 0.831 1.110 1.212 1.311 1.351 1.352 1.346 1.326 1.287 1.238 1.210 1.228 1.272 1.317 1.356 1.380 1.357 1.332
1.403 1.418 1.421 1.447 1.487 1.453 1.438 1.508 1.566 1.630 1.666 1.678 1.672 1.671 1.729 1.776 1.796 1.787 1.752 1.682 1.120 0.921 0.840 0.895 0.910 0.929 0.923 0.940 0.950 0.938 0.906 1.094 1.760 1.869 1.920 1.697 1.339 1.215 1.063 0.903 0.746 0.701 0.711 0.764 0.797 0.843 0.877 0.918 1.081 1.191 1.272 1.349 1.375 1.360 1.207 0.998 0.950 0.958 1.063 1.170 1.182 1.216 1.146 1.113 1.247 1.319 1.686 1.598 1.334 1.429 1.428 1.413 1.283 1.110 0.984 0.916 0.911 1.026 1.182 0.978 0.858 1.016 1.171 1.196 1.178 1.180 1.197 1.186 1.168 1.172 1.150 1.118 1.160 1.228 1.210 1.193 1.223 1.162 1.088 1.094 1.094 1.071 1.140 1.201 1.168 1.765 1.321 0.833 1.207 1.273 1.381 1.391 1.347 1.323 1.297 1.257 1.248 1.277 1.304 1.293 1.296 1.333 1.335 1.330 1.336
1.471 1.454 1.448 1.446 1.398 1.395 1.470 1.536 1.618 1.681 1.707 1.703 1.692 1.716 1.750 1.772 1.776 1.753 1.727 1.434 0.856 0.719 0.947 0.918 0.936 0.948 0.935 0.934 0.955 0.971 0.912 1.629 1.816 1.885 1.802 1.450 1.289 1.108 1.027 0.947 0.762 0.681 0.712 0.740 0.767 0.818 0.884 0.949 1.092 1.183 1.263 1.331 1.354 1.308 1.134 1.009 0.958 0.953 1.074 1.239 1.237 1.236 1.198 1.200 1.295 1.307 1.578 1.495 1.309 1.427 1.424 1.367 1.232 1.113 1.035 0.954 0.924 1.064 1.275 0.975 0.843 0.957 1.115 1.183 1.173 1.187 1.204 1.160 1.140 1.159 1.165 1.152 1.191 1.240 1.240 1.236 1.219 1.170 1.072 1.027 1.108 1.155 1.138 1.097 0.995 1.410 1.374 1.266 1.158 1.327 1.360 1.326 1.333 1.351 1.339 1.325 1.293 1.251 1.244 1.285 1.320 1.340 1.385 1.370 1.334
1.437 1.446 1.414 1.325 1.329 1.432 1.539 1.612 1.680 1.740 1.757 1.732 1.731 1.756 1.762 1.752 1.743 1.721 1.534 0.887 0.861 0.832 0.945 0.922 0.932 0.925 0.925 0.932 0.941 0.929 1.532 1.763 1.849 1.793 1.582 1.417 1.153 1.065 1.025 0.985 0.896 0.703 0.738 0.748 0.758 0.797 0.865 0.971 1.094 1.170 1.248 1.296 1.296 1.269 1.082 0.955 0.995 1.043 1.078 1.222 1.273 1.272 1.225 1.235 1.305 1.284 1.509 1.452 1.323 1.397 1.371 1.305 1.188 1.097 1.038 0.988 1.037 1.184 1.299 1.116 0.926 0.998 1.099 1.146 1.181 1.197 1.203 1.164 1.074 1.070 1.170 1.221 1.218 1.228 1.245 1.235 1.202 1.164 1.146 1.141 1.116 1.102 1.120 1.111 1.018 0.739 1.570 1.491 0.420 1.240 1.344 1.380 1.356 1.340 1.334 1.312 1.304 1.338 1.345 1.345 1.362 1.379 1.373 1.354 1.353
1.438 1.410 1.323 1.284 1.366 1.521 1.615 1.680 1.752 1.793 1.777 1.760 1.767 1.755 1.718 1.707 1.650 1.384 0.925 0.888 0.807 0.932 0.928 0.917 0.916 0.899 0.905 0.924 0.908 1.191 1.716 1.833 1.778 1.608 1.501 1.209 1.123 1.121 1.096 1.036 1.010 0.850 0.769 0.763 0.763 0.768 0.827 0.949 1.084 1.154 1.215 1.301 1.315 1.243 1.165 1.078 1.022 1.095 1.320 1.347 1.280 1.206 1.177 1.236 1.290 1.275 1.403 1.406 1.369 1.338 1.276 1.267 1.246 1.152 1.081 1.025 1.042 1.149 1.225 1.218 1.074 0.994 1.104 1.227 1.240 1.177 1.143 1.150 1.137 1.116 1.126 1.185 1.215 1.223 1.237 1.233 1.225 1.178 1.129 1.134 1.133 1.116 1.096 1.081 1.108 1.048 0.579 1.547 1.559 0.647 1.296 1.339 1.376 1.385 1.382 1.367 1.373 1.385 1.376 1.398 1.391 1.380 1.410 1.425 1.450
1.405 1.337 1.296 1.376 1.476 1.592 1.690 1.766 1.811 1.811 1.796 1.774 1.731 1.683 1.613 1.393 1.137 1.037 0.966 0.943 0.875 0.919 0.903 0.916 0.909 0.893 0.925 0.930 0.672 1.692 1.817 1.770 1.601 1.562 1.243 1.078 1.117 1.138 1.143 1.114 1.059 0.966 0.829 0.774 0.769 0.735 0.795 0.923 1.053 1.187 1.232 1.263 1.108 1.028 1.051 1.075 1.189 1.412 1.492 1.437 1.294 1.171 1.135 1.171 1.244 1.290 1.332 1.348 1.350 1.294 1.195 1.122 1.109 1.113 1.076 1.022 0.954 1.002 1.090 1.167 1.191 1.176 1.152 1.185 1.190 1.163 1.159 1.152 1.111 1.107 1.130 1.166 1.195 1.215 1.223 1.203 1.214 1.210 1.156 1.121 1.165 1.163 1.102 1.100 1.115 1.136 1.027 1.140 1.472 1.590 1.203 1.359 1.404 1.418 1.410 1.386 1.417 1.440 1.454 1.489 1.486 1.510 1.501 1.505 1.533
1.353 1.330 1.372 1.455 1.558 1.689 1.777 1.820 1.829 1.812 1.782 1.714 1.641 1.527 1.095 0.982 1.056 1.032 0.979 0.897 0.878 0.914 0.908 0.921 0.918 0.916 0.946 0.868 1.519 1.787 1.748 1.599 1.573 1.322 1.070 1.039 1.092 1.163 1.181 1.139 1.083 1.013 0.875 0.729 0.699 0.720 0.966 1.107 1.046 0.959 1.019 1.138 1.199 1.088 0.989 0.907 1.178 1.357 1.407 1.404 1.252 1.159 1.144 1.164 1.225 1.283 1.330 1.356 1.346 1.311 1.244 1.110 0.979 0.965 0.967 0.881 0.832 0.848 0.887 0.991 1.089 1.119 1.116 1.116 1.141 1.174 1.188 1.167 1.124 1.126 1.140 1.157 1.187 1.211 1.217 1.203 1.221 1.236 1.187 1.109 1.139 1.172 1.141 1.141 1.176 1.214 1.179 0.887 1.553 1.509 1.406 1.348 1.376 1.423 1.432 1.463 1.515 1.526 1.555 1.558 1.586 1.616 1.598 1.589 1.590
1.379 1.387 1.465 1.550 1.663 1.760 1.816 1.836 1.824 1.783 1.706 1.625 1.497 1.003 0.893 0.958 1.033 1.018 0.984 0.938 0.906 0.939 0.934 0.937 0.938 0.960 0.905 0.259 1.712 1.705 1.584 1.585 1.409 1.063 0.978 0.997 1.077 1.173 1.203 1.175 1.074 1.061 1.120 1.067 0.994 0.905 0.880 1.019 1.187 1.167 1.108 0.941 0.929 0.929 0.924 1.064 1.195 1.232 1.287 1.338 1.231 1.159 1.165 1.163 1.224 1.258 1.297 1.310 1.291 1.278 1.251 1.189 1.087 1.039 1.062 1.021 0.979 0.984 0.969 0.997 1.069 1.103 1.139 1.147 1.123 1.150 1.189 1.177 1.126 1.132 1.149 1.155 1.180 1.200 1.236 1.226 1.221 1.232 1.192 1.130 1.124 1.163 1.184 1.168 1.203 1.254 1.263 1.167 0.720 1.496 1.691 1.346 1.408 1.445 1.470 1.507 1.548 1.592 1.622 1.656 1.671 1.663 1.668 1.667 1.667
1.457 1.497 1.576 1.645 1.738 1.809 1.842 1.835 1.791 1.704 1.615 1.512 1.021 0.878 0.905 0.962 0.993 0.988 0.975 0.929 0.953 0.919 0.937 0.930 0.943 0.946 0.510 1.532 1.623 1.602 1.598 1.425 1.017 0.939 0.921 0.931 1.032 1.154 1.230 1.244 1.156 1.006 0.993 1.039 1.067 1.107 0.959 0.878 0.970 1.045 1.107 1.078 0.981 0.962 0.940 1.105 1.228 1.152 1.141 1.263 1.259 1.186 1.166 1.155 1.207 1.252 1.273 1.267 1.259 1.244 1.235 1.201 1.098 1.049 1.082 1.063 1.030 1.050 1.025 0.990 1.041 1.100 1.128 1.139 1.118 1.133 1.174 1.163 1.136 1.129 1.142 1.159 1.187 1.218 1.253 1.253 1.238 1.241 1.211 1.149 1.106 1.145 1.204 1.200 1.227 1.271 1.292 1.263 0.917 1.661 1.556 1.317 1.383 1.424 1.484 1.536 1.602 1.640 1.679 1.722 1.720 1.714 1.691 1.687 1.684
1.568 1.596 1.645 1.722 1.803 1.844 1.841 1.801 1.728 1.639 1.503 1.041 0.871 0.875 0.913 0.947 0.990 0.964 0.935 0.973 0.963 0.942 0.928 0.924 0.940 0.730 1.408 1.503 1.566 1.532 1.343 0.993 0.897 0.884 0.881 0.906 1.045 1.084 0.991 1.001 1.102 1.154 1.011 0.872 0.605 0.679 0.799 0.931 1.010 1.048 1.084 1.081 1.033 1.027 1.031 1.060 1.140 1.139 1.088 1.243 1.319 1.230 1.167 1.118 1.176 1.235 1.264 1.249 1.217 1.210 1.214 1.195 1.102 1.046 1.071 1.063 1.041 1.067 1.062 1.028 1.035 1.086 1.120 1.129 1.117 1.119 1.159 1.167 1.159 1.136 1.127 1.156 1.199 1.240 1.275 1.296 1.242 1.228 1.232 1.180 1.122 1.152 1.220 1.216 1.212 1.271 1.316 1.320 1.182 1.154 1.492 1.566 1.321 1.437 1.512 1.575 1.612 1.650 1.707 1.726 1.714 1.690 1.654 1.627 1.607
1.615 1.646 1.718 1.792 1.833 1.832 1.800 1.746 1.686 1.564 1.130 0.814 0.834 0.868 0.907 0.910 1.000 0.960 0.969 0.966 0.958 0.974 0.948 0.959 0.849 1.327 1.439 1.416 1.386 1.312 1.095 0.923 0.901 0.966 0.943 0.867 0.860 1.052 1.065 0.902 0.740 0.816 0.860 0.880 0.859 0.797 0.806 0.883 0.965 1.034 1.074 1.085 1.072 1.055 1.061 1.079 1.112 1.073 1.064 1.250 1.357 1.244 1.155 1.111 1.149 1.230 1.255 1.221 1.188 1.184 1.194 1.173 1.096 1.043 1.048 1.057 1.044 1.059 1.070 1.052 1.052 1.077 1.110 1.141 1.136 1.121 1.151 1.176 1.181 1.153 1.107 1.126 1.224 1.280 1.299 1.318 1.247 1.244 1.265 1.202 1.135 1.141 1.219 1.244 1.240 1.290 1.328 1.358 1.312 0.792 1.413 1.590 1.527 1.476 1.545 1.546 1.601 1.665 1.693 1.699 1.691 1.652 1.632 1.623 1.613
1.672 1.703 1.753 1.797 1.810 1.788 1.756 1.721 1.617 1.223 0.836 0.823 0.837 0.828 0.929 0.950 0.921 0.979 0.987 0.979 0.961 0.955 0.972 0.909 1.033 1.378 1.323 1.302 1.291 1.067 1.012 0.973 0.869 0.848 0.944 0.940 0.800 0.732 0.780 0.788 0.856 0.883 0.883 0.875 0.873 0.849 0.823 0.878 0.950 1.009 1.065 1.089 1.094 1.091 1.096 1.104 1.084 0.963 0.996 1.250 1.375 1.299 1.177 1.122 1.153 1.211 1.233 1.216 1.167 1.148 1.171 1.158 1.092 1.037 1.029 1.039 1.034 1.059 1.074 1.063 1.047 1.097 1.148 1.139 1.125 1.114 1.150 1.185 1.206 1.201 1.148 1.130 1.256 1.328 1.318 1.316 1.285 1.281 1.268 1.228 1.168 1.161 1.216 1.279 1.301 1.321 1.355 1.390 1.382 1.134 1.412 1.578 1.582 1.477 1.498 1.550 1.637 1.670 1.696 1.708 1.706 1.674 1.640 1.592 1.542
1.695 1.706 1.738 1.761 1.767 1.762 1.720 1.571 1.224 0.947 0.853 0.816 0.871 0.851 0.877 0.964 0.964 0.954 0.944 0.973 0.982 0.966 0.924 0.773 1.227 1.171 1.192 1.198 1.126 0.852 0.822 0.924 0.935 0.608 0.545 0.682 0.802 0.856 0.823 0.764 0.778 0.831 0.867 0.870 0.853 0.840 0.814 0.834 0.904 0.982 1.048 1.115 1.143 1.110 1.071 1.038 1.043 0.980 0.963 1.224 1.392 1.347 1.221 1.158 1.158 1.209 1.228 1.223 1.197 1.151 1.140 1.133 1.092 1.020 1.004 1.022 1.016 1.081 1.120 1.087 1.069 1.076 1.121 1.186 1.162 1.129 1.170 1.195 1.226 1.231 1.204 1.205 1.292 1.346 1.359 1.356 1.322 1.282 1.280 1.282 1.232 1.224 1.258 1.336 1.360 1.360 1.394 1.420 1.423 1.292 1.152 1.532 1.585 1.475 1.524 1.602 1.660 1.693 1.715 1.721 1.701 1.638 1.574 1.504 1.439
1.672 1.679 1.694 1.725 1.745 1.646 1.384 1.143 1.027 0.935 0.943 0.863 0.836 0.900 0.902 0.954 0.978 0.955 0.940 0.945 0.959 0.945 0.816 1.109 0.883 1.044 1.128 0.767 0.793 0.961 0.617 0.445 0.596 0.648 0.696 0.731 0.778 0.827 0.805 0.795 0.769 0.777 0.780 0.801 0.793 0.765 0.762 0.777 0.877 0.958 1.024 1.092 1.121 1.115 1.114 1.058 0.981 0.910 0.924 1.210 1.422 1.412 1.272 1.191 1.174 1.214 1.247 1.242 1.220 1.174 1.141 1.135 1.130 1.046 1.014 1.036 1.044 1.102 1.111 1.086 1.106 1.128 1.162 1.224 1.229 1.185 1.172 1.199 1.246 1.271 1.277 1.276 1.343 1.392 1.408 1.394 1.381 1.325 1.312 1.326 1.299 1.294 1.327 1.382 1.399 1.398 1.416 1.437 1.438 1.402 1.131 1.409 1.668 1.604 1.580 1.630 1.660 1.696 1.706 1.715 1.687 1.648 1.619 1.522 1.419
1.626 1.620 1.630 1.600 1.407 1.157 1.097 1.125 1.152 0.947 0.875 0.920 0.876 0.917 0.962 0.970 0.958 0.974 0.975 0.957 0.926 0.793 1.054 0.933 1.177 1.268 1.071 0.796 0.383 0.426 0.541 0.644 0.657 0.647 0.684 0.736 0.799 0.828 0.801 0.762 0.730 0.718 0.691 0.682 0.713 0.647 0.653 0.658 0.770 0.900 1.011 1.050 1.084 1.108 1.093 1.051 1.007 0.937 0.929 1.146 1.438 1.500 1.368 1.251 1.203 1.224 1.249 1.281 1.260 1.208 1.173 1.149 1.153 1.104 1.062 1.074 1.095 1.110 1.110 1.121 1.169 1.201 1.244 1.282 1.280 1.229 1.222 1.264 1.273 1.304 1.350 1.363 1.396 1.435 1.450 1.432 1.418 1.340 1.342 1.374 1.367 1.355 1.379 1.414 1.441 1.434 1.439 1.463 1.460 1.480 1.300 1.604 1.605 1.518 1.595 1.611 1.656 1.686 1.709 1.721 1.698 1.653 1.553 1.371 1.295
1.418 1.335 1.191 1.112 1.131 1.154 1.162 1.139 1.090 0.990 0.898 0.903 0.967 0.971 1.002 1.008 0.977 0.968 0.970 0.971 0.777 0.958 1.249 1.393 1.358 1.134 0.765 0.551 0.536 0.473 0.543 0.613 0.679 0.704 0.683 0.708 0.762 0.793 0.772 0.723 0.709 0.666 0.661 0.589 0.635 0.609 0.546 0.565 0.690 0.836 0.892 0.985 0.980 1.014 1.088 1.090 1.073 1.062 1.103 1.220 1.473 1.557 1.466 1.310 1.262 1.241 1.277 1.337 1.320 1.279 1.227 1.195 1.203 1.185 1.148 1.121 1.128 1.141 1.165 1.241 1.261 1.287 1.316 1.339 1.357 1.334 1.315 1.329 1.335 1.369 1.422 1.438 1.442 1.486 1.486 1.463 1.434 1.379 1.407 1.417 1.421 1.407 1.425 1.446 1.475 1.470 1.478 1.489 1.476 1.495 1.395 1.368 1.489 1.690 1.578 1.620 1.648 1.668 1.694 1.691 1.658 1.587 1.459 1.306 1.267
0.929 1.014 1.064 1.104 1.080 1.121 1.186 1.200 1.123 0.951 0.868 0.949 0.991 1.014 1.013 1.040 1.021 1.002 0.959 0.877 1.191 1.325 1.447 1.345 1.215 0.989 0.693 0.503 0.468 0.549 0.593 0.549 0.582 0.636 0.630 0.662 0.692 0.753 0.763 0.734 0.720 0.694 0.669 0.645 0.589 0.615 0.635 0.617 0.557 0.631 0.732 0.749 0.866 0.986 1.107 1.208 1.312 1.297 1.191 1.282 1.531 1.600 1.524 1.385 1.323 1.294 1.353 1.409 1.392 1.357 1.297 1.266 1.286 1.287 1.240 1.199 1.206 1.228 1.292 1.346 1.342 1.378 1.388 1.436 1.450 1.435 1.392 1.403 1.414 1.451 1.488 1.495 1.484 1.514 1.513 1.498 1.462 1.457 1.458 1.451 1.467 1.468 1.473 1.471 1.501 1.498 1.488 1.492 1.501 1.503 1.452 1.298 1.633 1.788 1.541 1.620 1.636 1.644 1.664 1.662 1.621 1.536 1.415 1.248 1.174
0.948 1.043 1.040 1.026 1.087 1.164 1.269 1.245 1.051 0.986 0.889 0.963 0.964 1.002 1.032 1.037 1.032 0.992 0.971 1.254 1.422 1.486 1.380 1.213 1.069 0.833 0.588 0.589 0.575 0.577 0.573 0.510 0.483 0.481 0.536 0.569 0.668 0.744 0.790 0.768 0.757 0.733 0.714 0.727 0.739 0.698 0.657 0.642 0.557 0.569 0.586 0.432 0.507 0.949 1.240 1.356 1.428 1.406 1.379 1.452 1.544 1.610 1.580 1.472 1.418 1.403 1.453 1.474 1.453 1.422 1.376 1.357 1.353 1.346 1.311 1.304 1.313 1.354 1.407 1.440 1.442 1.461 1.478 1.513 1.524 1.482 1.434 1.460 1.489 1.502 1.518 1.519 1.511 1.526 1.541 1.537 1.516 1.504 1.485 1.497 1.509 1.510 1.505 1.491 1.502 1.512 1.501 1.504 1.513 1.489 1.519 1.438 1.780 1.600 1.270 1.622 1.578 1.604 1.630 1.622 1.549 1.448 1.348 1.253 1.198
0.891 0.957 1.045 1.075 1.116 1.217 1.317 1.292 1.037 0.925 0.926 0.929 0.934 0.972 1.027 1.034 0.998 0.999 1.341 1.505 1.509 1.379 1.189 1.057 0.944 0.797 0.644 0.592 0.589 0.549 0.484 0.470 0.427 0.445 0.474 0.522 0.639 0.711 0.794 0.830 0.852 0.827 0.748 0.745 0.783 0.826 0.890 0.885 0.832 0.511 0.490 0.495 0.582 1.125 1.392 1.474 1.515 1.514 1.502 1.492 1.535 1.637 1.633 1.560 1.489 1.470 1.498 1.508 1.503 1.479 1.442 1.425 1.416 1.407 1.407 1.411 1.413 1.448 1.501 1.517 1.526 1.530 1.530 1.542 1.544 1.507 1.486 1.500 1.525 1.525 1.531 1.535 1.534 1.547 1.563 1.563 1.558 1.545 1.521 1.524 1.538 1.541 1.528 1.500 1.502 1.525 1.513 1.494 1.506 1.508 1.556 1.478 1.483 1.482 1.706 1.531 1.567 1.587 1.558 1.523 1.493 1.438 1.334 1.210 1.132
0.987 1.013 1.044 1.089 1.145 1.263 1.373 1.321 1.048 0.887 0.900 0.907 0.943 0.963 0.958 0.992 1.251 1.379 1.499 1.512 1.372 1.209 1.086 0.986 0.877 0.763 0.658 0.581 0.521 0.480 0.431 0.445 0.469 0.480 0.454 0.499 0.586 0.750 0.805 0.815 0.833 0.860 0.816 0.806 0.849 0.996 1.055 0.964 0.870 0.742 0.641 0.722 1.088 1.314 1.428 1.518 1.585 1.578 1.573 1.550 1.518 1.656 1.672 1.602 1.537 1.526 1.525 1.546 1.550 1.519 1.495 1.481 1.457 1.464 1.483 1.476 1.482 1.520 1.563 1.575 1.572 1.551 1.551 1.555 1.562 1.546 1.525 1.531 1.542 1.546 1.546 1.553 1.560 1.564 1.581 1.593 1.595 1.580 1.543 1.550 1.558 1.548 1.539 1.508 1.494 1.509 1.500 1.488 1.519 1.530 1.550 1.513 1.462 1.662 1.761 1.514 1.590 1.536 1.483 1.462 1.413 1.311 1.218 1.177 1.144
0.983 1.027 1.064 1.104 1.181 1.325 1.428 1.351 1.070 0.894 0.875 0.914 0.933 0.926 0.725 1.160 1.317 1.466 1.466 1.332 1.255 1.172 1.017 0.858 0.802 0.767 0.638 0.547 0.509 0.444 0.433 0.434 0.457 0.472 0.500 0.531 0.554 0.653 0.777 0.853 0.876 0.897 0.901 0.959 1.054 1.080 1.120 1.007 0.860 0.746 0.918 1.170 1.301 1.438 1.525 1.597 1.625 1.618 1.590 1.444 1.463 1.716 1.685 1.637 1.593 1.570 1.555 1.571 1.574 1.549 1.537 1.515 1.500 1.507 1.518 1.527 1.550 1.571 1.601 1.613 1.603 1.578 1.572 1.570 1.581 1.574 1.570 1.557 1.549 1.564 1.569 1.577 1.579 1.585 1.602 1.605 1.619 1.607 1.559 1.553 1.555 1.539 1.521 1.500 1.468 1.500 1.514 1.505 1.527 1.556 1.563 1.590 1.527 1.775 1.695 1.251 1.578 1.467 1.410 1.340 1.231 1.152 1.118 1.113 1.136
0.977 1.027 1.072 1.125 1.225 1.382 1.446 1.350 1.107 0.926 0.850 0.932 0.928 0.744 0.833 1.065 1.343 1.379 1.335 1.297 1.188 1.069 1.004 0.900 0.772 0.699 0.607 0.503 0.384 0.350 0.344 0.420 0.484 0.539 0.574 0.554 0.437 0.457 0.671 0.726 0.896 1.078 1.122 1.171 1.103 1.149 1.164 1.124 1.080 1.094 1.250 1.378 1.453 1.524 1.573 1.588 1.591 1.553 1.493 1.292 1.575 1.766 1.689 1.673 1.637 1.600 1.580 1.591 1.591 1.574 1.560 1.546 1.541 1.530 1.553 1.590 1.595 1.601 1.624 1.631 1.627 1.594 1.576 1.588 1.597 1.595 1.600 1.571 1.556 1.580 1.595 1.602 1.599 1.603 1.605 1.613 1.631 1.610 1.569 1.545 1.535 1.524 1.517 1.516 1.505 1.520 1.531 1.564 1.571 1.590 1.591 1.631 1.570 1.719 1.453 1.549 1.533 1.497 1.386 1.299 1.126 0.922 0.897 0.989 1.045
0.943 0.983 1.066 1.148 1.263 1.406 1.433 1.344 1.155 0.945 0.916 0.945 0.894 0.122 0.666 1.002 1.259 1.329 1.368 1.322 1.179 1.021 0.936 0.818 0.663 0.605 0.529 0.427 0.250 0.129 0.314 0.423 0.479 0.497 0.484 0.397 0.274 0.379 0.461 0.712 1.112 1.261 1.329 1.328 1.318 1.339 1.320 1.269 1.198 1.252 1.370 1.432 1.484 1.540 1.543 1.558 1.544 1.482 1.490 1.368 1.682 1.749 1.698 1.707 1.674 1.630 1.610 1.604 1.606 1.594 1.585 1.580 1.559 1.559 1.583 1.612 1.618 1.621 1.628 1.647 1.630 1.591 1.589 1.607 1.604 1.617 1.614 1.572 1.563 1.597 1.614 1.608 1.608 1.606 1.604 1.613 1.620 1.619 1.590 1.543 1.543 1.556 1.562 1.555 1.555 1.563 1.590 1.603 1.599 1.607 1.609 1.643 1.607 1.536 1.636 1.732 1.266 1.526 1.431 1.287 1.124 1.137 1.099 1.116 1.073
0.911 0.909 1.010 1.147 1.274 1.395 1.417 1.333 1.246 1.008 0.990 0.962 0.692 0.569 0.608 1.054 1.318 1.395 1.358 1.301 1.197 1.031 0.862 0.736 0.601 0.472 0.482 0.421 0.217 0.239 0.366 0.400 0.416 0.402 0.283 0.129 0.524 0.454 0.540 1.105 1.368 1.454 1.508 1.511 1.478 1.427 1.396 1.324 1.255 1.274 1.351 1.451 1.514 1.531 1.570 1.564 1.506 1.510 1.553 1.471 1.646 1.752 1.788 1.744 1.704 1.660 1.630 1.608 1.614 1.614 1.609 1.592 1.587 1.568 1.581 1.621 1.637 1.639 1.631 1.635 1.623 1.610 1.608 1.609 1.611 1.622 1.607 1.578 1.576 1.598 1.618 1.608 1.610 1.611 1.603 1.619 1.628 1.638 1.625 1.588 1.593 1.606 1.596 1.587 1.600 1.587 1.594 1.612 1.607 1.591 1.604 1.624 1.624 1.521 1.764 1.622 1.194 1.539 1.431 1.335 1.308 1.292 1.303 1.324 1.322
0.888 0.863 0.944 1.109 1.275 1.363 1.373 1.309 1.131 1.052 0.988 0.895 0.732 0.665 0.932 1.240 1.386 1.386 1.344 1.298 1.189 1.069 1.017 0.757 0.587 0.767 0.756 0.792 0.743 0.583 0.720 0.745 0.707 0.652 0.651 0.790 0.720 0.659 1.097 1.462 1.568 1.594 1.593 1.549 1.500 1.480 1.444 1.377 1.283 1.210 1.353 1.497 1.543 1.587 1.602 1.580 1.563 1.557 1.613 1.588 1.686 1.817 1.848 1.758 1.713 1.671 1.645 1.617 1.624 1.633 1.610 1.595 1.589 1.579 1.604 1.615 1.639 1.636 1.625 1.628 1.635 1.632 1.606 1.597 1.611 1.623 1.614 1.597 1.582 1.594 1.619 1.614 1.623 1.619 1.620 1.637 1.652 1.672 1.663 1.633 1.618 1.611 1.596 1.588 1.601 1.582 1.581 1.590 1.599 1.584 1.590 1.604 1.620 1.547 1.726 1.359 1.531 1.497 1.475 1.394 1.405 1.376 1.374 1.399 1.418
0.895 0.875 0.917 1.084 1.211 1.262 1.244 1.124 1.040 1.020 0.980 0.684 0.798 0.993 1.207 1.328 1.415 1.435 1.380 1.297 1.232 1.139 1.067 0.951 1.054 1.076 1.142 1.163 1.031 0.984 1.031 0.993 1.017 1.113 1.171 1.190 1.134 1.175 1.455 1.619 1.633 1.608 1.609 1.583 1.576 1.520 1.475 1.357 1.197 1.175 1.402 1.557 1.626 1.678 1.644 1.634 1.634 1.657 1.695 1.693 1.736 1.863 1.830 1.611 1.716 1.685 1.657 1.627 1.623 1.629 1.610 1.606 1.598 1.602 1.588 1.597 1.638 1.644 1.637 1.621 1.641 1.640 1.603 1.599 1.625 1.633 1.624 1.604 1.590 1.596 1.623 1.638 1.634 1.633 1.640 1.653 1.675 1.685 1.675 1.640 1.605 1.591 1.580 1.574 1.586 1.584 1.568 1.564 1.591 1.578 1.582 1.591 1.617 1.597 1.549 1.648 1.694 1.117 1.546 1.460 1.402 1.376 1.398 1.389 1.348
0.851 0.846 0.951 1.039 1.092 0.972 0.973 1.091 1.079 0.741 0.560 0.654 0.988 1.228 1.341 1.433 1.465 1.428 1.347 1.324 1.309 1.249 1.175 1.202 1.246 1.290 1.325 1.277 1.218 1.204 1.149 1.151 1.250 1.327 1.383 1.352 1.303 1.400 1.603 1.679 1.663 1.667 1.634 1.604 1.538 1.474 1.437 1.297 1.249 1.316 1.419 1.641 1.792 1.756 1.620 1.650 1.698 1.724 1.733 1.741 1.687 1.846 1.793 1.583 1.725 1.686 1.663 1.631 1.617 1.627 1.609 1.602 1.596 1.599 1.579 1.605 1.635 1.646 1.631 1.624 1.651 1.648 1.614 1.612 1.625 1.631 1.634 1.622 1.598 1.601 1.637 1.639 1.638 1.654 1.647 1.659 1.675 1.667 1.662 1.639 1.591 1.563 1.566 1.563 1.563 1.582 1.558 1.546 1.575 1.583 1.576 1.592 1.616 1.626 1.526 1.776 1.539 1.141 1.548 1.428 1.409 1.387 1.358 1.363 1.404
0.776 0.840 0.773 0.770 0.975 1.037 0.774 0.577 0.701 0.725 0.684 0.909 1.219 1.382 1.475 1.475 1.472 1.445 1.414 1.394 1.367 1.319 1.319 1.365 1.403 1.424 1.383 1.330 1.241 1.209 1.220 1.320 1.380 1.420 1.411 1.371 1.431 1.557 1.673 1.691 1.677 1.628 1.566 1.563 1.509 1.508 1.435 1.364 1.349 1.396 1.656 1.812 1.740 1.537 1.650 1.713 1.738 1.745 1.736 1.729 1.732 1.807 1.632 1.631 1.725 1.690 1.661 1.626 1.604 1.601 1.613 1.600 1.600 1.603 1.583 1.603 1.626 1.646 1.647 1.630 1.636 1.646 1.627 1.620 1.625 1.637 1.640 1.626 1.607 1.614 1.632 1.641 1.643 1.655 1.647 1.651 1.663 1.650 1.648 1.633 1.571 1.545 1.560 1.556 1.540 1.572 1.562 1.552 1.563 1.582 1.579 1.581 1.601 1.622 1.541 1.728 1.203 1.427 1.455 1.486 1.438 1.386 1.401 1.425 1.422
0.719 0.606 0.929 0.806 0.575 0.641 0.707 0.753 0.712 0.795 1.084 1.285 1.399 1.500 1.520 1.526 1.509 1.471 1.439 1.421 1.444 1.441 1.435 1.438 1.457 1.410 1.363 1.348 1.325 1.352 1.393 1.414 1.414 1.431 1.431 1.467 1.513 1.595 1.637 1.623 1.629 1.590 1.580 1.549 1.507 1.496 1.459 1.446 1.484 1.579 1.637 1.679 1.701 1.736 1.751 1.743 1.752 1.735 1.707 1.713 1.679 1.672 1.664 1.734 1.716 1.671 1.642 1.611 1.584 1.601 1.618 1.600 1.600 1.591 1.591 1.609 1.617 1.640 1.643 1.620 1.627 1.651 1.645 1.616 1.613 1.638 1.644 1.639 1.624 1.608 1.618 1.648 1.650 1.650 1.639 1.639 1.646 1.628 1.621 1.625 1.577 1.541 1.547 1.546 1.537 1.575 1.576 1.548 1.552 1.587 1.564 1.560 1.590 1.613 1.573 1.519 1.515 1.644 1.188 1.554 1.445 1.342 1.326 1.333 1.338
0.949 0.756 0.632 0.642 0.703 0.679 0.657 0.678 0.858 1.209 1.377 1.459 1.525 1.549 1.555 1.536 1.484 1.497 1.513 1.502 1.469 1.444 1.422 1.442 1.453 1.455 1.487 1.513 1.496 1.491 1.484 1.456 1.465 1.470 1.467 1.459 1.494 1.567 1.582 1.597 1.593 1.566 1.539 1.498 1.543 1.587 1.587 1.569 1.552 1.601 1.672 1.728 1.766 1.789 1.755 1.732 1.722 1.673 1.661 1.688 1.629 1.631 1.736 1.763 1.696 1.648 1.618 1.601 1.589 1.591 1.604 1.597 1.597 1.597 1.601 1.591 1.597 1.625 1.639 1.627 1.613 1.641 1.650 1.616 1.623 1.641 1.644 1.645 1.626 1.611 1.627 1.654 1.649 1.639 1.625 1.624 1.632 1.614 1.608 1.614 1.586 1.550 1.541 1.548 1.549 1.570 1.584 1.554 1.541 1.556 1.558 1.563 1.575 1.599 1.607 1.492 1.734 1.501 1.126 1.521 1.381 1.326 1.343 1.361 1.377
0.863 0.760 0.731 0.687 0.664 0.603 0.541 0.896 1.338 1.482 1.519 1.545 1.547 1.543 1.561 1.539 1.531 1.531 1.492 1.443 1.450 1.469 1.490 1.517 1.545 1.566 1.595 1.594 1.561 1.529 1.486 1.454 1.439 1.413 1.415 1.455 1.505 1.531 1.531 1.527 1.527 1.548 1.582 1.610 1.657 1.654 1.626 1.567 1.561 1.656 1.706 1.710 1.755 1.794 1.763 1.699 1.649 1.605 1.575 1.636 1.712 1.787 1.822 1.726 1.617 1.638 1.602 1.593 1.585 1.578 1.600 1.604 1.595 1.588 1.585 1.577 1.596 1.618 1.633 1.615 1.613 1.651 1.653 1.625 1.631 1.631 1.644 1.653 1.650 1.631 1.627 1.651 1.648 1.630 1.621 1.617 1.616 1.600 1.595 1.616 1.613 1.558 1.538 1.555 1.553 1.555 1.576 1.549 1.519 1.534 1.565 1.552 1.558 1.582 1.590 1.476 1.678 1.036 1.302 1.435 1.427 1.383 1.346 1.339 1.330
0.811 0.713 0.671 0.687 0.608 0.624 1.040 1.407 1.536 1.548 1.538 1.561 1.586 1.584 1.562 1.531 1.507 1.502 1.508 1.530 1.544 1.553 1.560 1.579 1.609 1.622 1.621 1.578 1.523 1.471 1.408 1.403 1.396 1.406 1.448 1.454 1.467 1.498 1.528 1.568 1.579 1.615 1.598 1.601 1.641 1.635 1.607 1.562 1.592 1.661 1.670 1.676 1.720 1.735 1.724 1.627 1.487 1.561 1.736 1.884 1.789 1.560 1.627 1.613 1.610 1.642 1.588 1.587 1.584 1.566 1.587 1.605 1.589 1.588 1.584 1.566 1.591 1.610 1.627 1.627 1.629 1.643 1.649 1.641 1.636 1.637 1.659 1.662 1.659 1.643 1.632 1.644 1.645 1.623 1.612 1.605 1.602 1.595 1.587 1.611 1.618 1.566 1.533 1.539 1.545 1.529 1.551 1.554 1.514 1.514 1.549 1.535 1.534 1.557 1.563 1.506 1.457 1.206 1.582 1.326 1.468 1.372 1.311 1.303 1.307
0.832 0.734 0.534 0.578 0.924 1.277 1.484 1.573 1.577 1.576 1.597 1.619 1.597 1.559 1.555 1.561 1.555 1.554 1.576 1.573 1.589 1.609 1.611 1.613 1.581 1.570 1.551 1.535 1.543 1.511 1.457 1.457 1.451 1.476 1.500 1.532 1.558 1.547 1.562 1.549 1.501 1.416 1.344 1.474 1.548 1.629 1.649 1.615 1.612 1.643 1.634 1.589 1.546 1.651 1.688 1.644 1.778 1.759 1.680 1.681 1.492 1.511 1.554 1.566 1.679 1.650 1.584 1.574 1.577 1.560 1.576 1.606 1.595 1.581 1.553 1.563 1.597 1.602 1.621 1.633 1.632 1.636 1.659 1.658 1.635 1.638 1.657 1.662 1.664 1.645 1.625 1.624 1.626 1.609 1.602 1.581 1.574 1.571 1.567 1.594 1.609 1.566 1.520 1.517 1.521 1.509 1.535 1.545 1.501 1.495 1.519 1.513 1.508 1.531 1.533 1.540 1.402 1.626 1.482 1.156 1.488 1.364 1.266 1.277 1.291
0.821 0.766 0.899 1.131 1.394 1.566 1.632 1.617 1.592 1.598 1.614 1.617 1.602 1.587 1.586 1.589 1.578 1.593 1.609 1.612 1.609 1.565 1.565 1.571 1.563 1.572 1.586 1.629 1.633 1.519 1.541 1.432 1.501 1.537 1.545 1.527 1.465 1.377 1.287 1.251 1.086 1.055 1.483 1.532 1.617 1.708 1.740 1.665 1.553 1.523 1.576 1.605 1.739 1.855 1.782 1.647 1.657 1.592 1.618 1.616 1.606 1.577 1.566 1.637 1.703 1.613 1.593 1.569 1.564 1.548 1.560 1.587 1.579 1.560 1.547 1.568 1.577 1.591 1.617 1.642 1.638 1.629 1.654 1.650 1.617 1.631 1.649 1.650 1.646 1.625 1.601 1.597 1.598 1.596 1.574 1.548 1.547 1.548 1.554 1.570 1.580 1.559 1.510 1.487 1.497 1.494 1.503 1.531 1.504 1.464 1.472 1.500 1.489 1.499 1.512 1.518 1.390 1.574 1.031 1.309 1.419 1.251 1.241 1.257 1.292
1.348 1.295 1.290 1.434 1.571 1.625 1.630 1.607 1.589 1.591 1.630 1.646 1.633 1.614 1.620 1.629 1.617 1.619 1.613 1.589 1.530 1.526 1.584 1.609 1.628 1.636 1.638 1.648 1.566 1.687 1.728 1.595 1.675 1.655 1.622 1.629 1.619 1.505 1.459 1.512 1.429 1.668 1.508 1.206 1.532 1.747 1.759 1.712 1.652 1.738 1.784 1.717 1.696 1.677 1.622 1.641 1.651 1.656 1.630 1.617 1.629 1.608 1.589 1.722 1.653 1.508 1.606 1.546 1.528 1.524 1.531 1.570 1.580 1.566 1.547 1.559 1.573 1.601 1.616 1.637 1.630 1.618 1.633 1.626 1.603 1.610 1.617 1.634 1.629 1.606 1.584 1.565 1.578 1.584 1.545 1.534 1.520 1.526 1.540 1.535 1.559 1.562 1.492 1.460 1.478 1.475 1.477 1.513 1.481 1.428 1.450 1.494 1.470 1.470 1.504 1.510 1.441 1.396 1.056 1.537 1.290 1.317 1.290 1.269 1.277
1.293 1.329 1.450 1.546 1.577 1.573 1.602 1.601 1.600 1.631 1.651 1.660 1.666 1.650 1.659 1.646 1.622 1.611 1.591 1.566 1.574 1.609 1.626 1.637 1.655 1.672 1.693 1.687 1.710 1.956 1.813 1.524 1.718 1.761 1.751 1.753 1.570 1.350 1.562 1.631 1.474 1.449 1.238 1.543 1.738 1.850 1.885 1.822 1.676 1.651 1.615 1.606 1.634 1.653 1.671 1.665 1.660 1.648 1.614 1.594 1.624 1.630 1.622 1.663 1.583 1.617 1.606 1.514 1.520 1.536 1.545 1.571 1.595 1.585 1.564 1.564 1.569 1.593 1.604 1.628 1.624 1.600 1.583 1.590 1.591 1.597 1.610 1.616 1.602 1.590 1.567 1.548 1.571 1.559 1.528 1.515 1.503 1.527 1.532 1.512 1.538 1.541 1.481 1.451 1.467 1.460 1.450 1.469 1.478 1.441 1.443 1.472 1.457 1.457 1.502 1.473 1.468 1.328 1.523 1.435 1.092 1.374 1.246 1.197 1.179
1.416 1.422 1.489 1.620 1.544 1.540 1.577 1.579 1.598 1.631 1.654 1.679 1.664 1.655 1.641 1.620 1.639 1.655 1.649 1.629 1.621 1.613 1.640 1.679 1.724 1.738 1.760 1.662 1.925 1.966 1.372 1.560 1.687 1.735 1.665 1.425 1.200 1.449 1.785 1.505 1.408 1.527 1.639 1.744 1.758 1.747 1.774 1.782 1.753 1.650 1.616 1.617 1.644 1.680 1.678 1.654 1.643 1.632 1.600 1.578 1.617 1.641 1.623 1.650 1.619 1.681 1.609 1.547 1.546 1.553 1.568 1.582 1.602 1.599 1.567 1.535 1.561 1.591 1.591 1.601 1.606 1.567 1.553 1.583 1.592 1.587 1.594 1.598 1.591 1.584 1.564 1.541 1.544 1.548 1.534 1.514 1.509 1.518 1.512 1.491 1.515 1.524 1.488 1.455 1.446 1.443 1.437 1.465 1.499 1.445 1.435 1.457 1.464 1.449 1.470 1.458 1.465 1.285 1.408 0.969 1.268 1.276 1.158 1.170 1.160
1.422 1.467 1.580 1.477 1.446 1.548 1.541 1.556 1.556 1.571 1.613 1.625 1.597 1.586 1.601 1.650 1.650 1.639 1.630 1.613 1.618 1.661 1.710 1.731 1.724 1.731 1.731 1.648 1.934 1.787 0.656 0.995 1.402 1.420 1.207 0.882 1.298 1.488 1.541 1.400 1.508 1.517 1.621 1.648 1.697 1.731 1.773 1.813 1.766 1.683 1.622 1.606 1.651 1.674 1.655 1.640 1.644 1.618 1.587 1.569 1.596 1.635 1.625 1.616 1.741 1.723 1.491 1.588 1.568 1.567 1.582 1.575 1.581 1.590 1.566 1.545 1.564 1.564 1.556 1.581 1.597 1.564 1.538 1.565 1.588 1.575 1.589 1.589 1.583 1.582 1.562 1.540 1.541 1.552 1.531 1.516 1.504 1.506 1.495 1.472 1.493 1.513 1.495 1.447 1.435 1.455 1.450 1.467 1.494 1.472 1.434 1.435 1.461 1.427 1.431 1.439 1.413 1.279 1.264 1.083 1.466 1.214 1.193 1.155 1.126
1.407 1.417 1.444 1.491 1.412 1.347 1.644 1.561 1.461 1.441 1.504 1.529 1.545 1.540 1.534 1.538 1.578 1.652 1.647 1.631 1.639 1.662 1.698 1.717 1.690 1.686 1.684 1.763 1.841 1.554 1.412 1.142 1.150 1.374 1.434 1.101 1.232 1.339 1.487 1.574 1.501 1.520 1.620 1.656 1.699 1.712 1.736 1.774 1.774 1.710 1.595 1.596 1.639 1.659 1.645 1.632 1.628 1.598 1.581 1.564 1.575 1.628 1.633 1.633 1.791 1.614 1.466 1.615 1.568 1.563 1.574 1.552 1.569 1.591 1.572 1.546 1.552 1.538 1.549 1.574 1.584 1.558 1.545 1.572 1.585 1.577 1.584 1.580 1.587 1.581 1.567 1.543 1.530 1.544 1.537 1.507 1.487 1.489 1.467 1.460 1.482 1.514 1.510 1.447 1.434 1.473 1.462 1.457 1.494 1.486 1.405 1.415 1.437 1.403 1.389 1.405 1.351 1.295 1.186 1.416 1.381 1.014 1.200 1.151 1.133
1.411 1.415 1.418 1.400 1.336 1.613 1.475 1.398 1.476 1.459 1.483 1.521 1.500 1.481 1.545 1.589 1.627 1.654 1.666 1.625 1.572 1.628 1.710 1.711 1.670 1.660 1.647 1.702 1.707 1.634 1.549 1.527 1.501 1.561 1.517 1.474 1.392 1.470 1.579 1.632 1.546 1.586 1.629 1.640 1.679 1.695 1.708 1.701 1.742 1.719 1.607 1.606 1.606 1.634 1.643 1.617 1.601 1.594 1.583 1.561 1.558 1.617 1.630 1.631 1.669 1.608 1.670 1.610 1.543 1.565 1.563 1.530 1.550 1.580 1.582 1.560 1.540 1.532 1.550 1.559 1.578 1.580 1.564 1.564 1.587 1.586 1.579 1.583 1.573 1.564 1.565 1.547 1.525 1.529 1.523 1.492 1.481 1.479 1.464 1.469 1.481 1.512 1.503 1.444 1.451 1.477 1.446 1.439 1.464 1.458 1.381 1.383 1.391 1.362 1.328 1.356 1.280 1.290 1.133 1.329 1.015 1.211 1.202 1.123 1.095
1.402 1.402 1.423 1.407 1.399 1.402 1.558 1.513 1.029 1.577 1.474 1.484 1.531 1.610 1.612 1.575 1.572 1.612 1.627 1.634 1.674 1.659 1.660 1.664 1.700 1.688 1.653 1.662 1.678 1.665 1.638 1.636 1.620 1.593 1.557 1.578 1.570 1.564 1.596 1.639 1.626 1.627 1.612 1.622 1.654 1.668 1.672 1.659 1.709 1.714 1.645 1.600 1.585 1.624 1.633 1.608 1.586 1.591 1.577 1.550 1.542 1.601 1.639 1.637 1.677 1.672 1.692 1.599 1.549 1.566 1.541 1.515 1.532 1.581 1.594 1.561 1.531 1.532 1.545 1.558 1.578 1.593 1.575 1.564 1.590 1.586 1.568 1.564 1.554 1.557 1.552 1.537 1.520 1.525 1.522 1.500 1.484 1.478 1.471 1.472 1.471 1.502 1.497 1.450 1.436 1.432 1.418 1.408 1.413 1.430 1.348 1.339 1.334 1.314 1.289 1.281 1.254 1.274 1.131 1.194 1.104 1.444 1.094 1.076 1.029
1.390 1.399 1.410 1.428 1.384 1.293 1.408 1.337 1.672 1.423 1.047 1.581 1.598 1.550 1.513 1.535 1.585 1.633 1.654 1.689 1.679 1.699 1.677 1.666 1.682 1.675 1.694 1.670 1.638 1.634 1.647 1.663 1.687 1.625 1.604 1.663 1.642 1.603 1.621 1.657 1.623 1.599 1.612 1.618 1.609 1.633 1.651 1.629 1.665 1.722 1.678 1.583 1.581 1.603 1.609 1.593 1.580 1.583 1.568 1.545 1.539 1.586 1.635 1.638 1.637 1.744 1.726 1.490 1.574 1.554 1.533 1.509 1.531 1.597 1.611 1.582 1.545 1.545 1.551 1.552 1.575 1.600 1.584 1.560 1.581 1.584 1.548 1.546 1.554 1.539 1.528 1.529 1.524 1.534 1.537 1.515 1.493 1.477 1.472 1.469 1.458 1.477 1.471 1.420 1.395 1.398 1.404 1.368 1.370 1.389 1.345 1.312 1.290 1.278 1.241 1.241 1.267 1.202 1.192 1.129 1.421 1.354 0.929 1.046 1.037
1.351 1.354 1.370 1.388 1.349 1.351 1.416 1.461 1.502 1.427 1.538 1.411 1.695 1.552 1.579 1.599 1.616 1.646 1.675 1.678 1.682 1.726 1.736 1.693 1.638 1.651 1.668 1.679 1.664 1.619 1.641 1.665 1.710 1.680 1.648 1.645 1.670 1.640 1.604 1.635 1.628 1.594 1.592 1.611 1.597 1.601 1.599 1.598 1.643 1.722 1.688 1.573 1.544 1.560 1.582 1.592 1.575 1.567 1.557 1.543 1.543 1.572 1.635 1.644 1.628 1.787 1.597 1.403 1.608 1.566 1.540 1.521 1.557 1.610 1.625 1.594 1.547 1.559 1.558 1.557 1.581 1.613 1.585 1.550 1.579 1.585 1.550 1.544 1.540 1.523 1.521 1.531 1.537 1.543 1.560 1.545 1.494 1.455 1.461 1.455 1.436 1.440 1.435 1.400 1.371 1.373 1.377 1.319 1.342 1.383 1.334 1.249 1.262 1.232 1.213 1.213 1.210 1.161 1.212 1.071 1.305 0.984 1.082 1.042 0.997
1.351 1.362 1.402 1.432 1.415 1.411 1.412 1.497 1.551 1.512 1.415 1.772 1.571 1.386 1.665 1.641 1.645 1.657 1.681 1.686 1.720 1.743 1.742 1.751 1.708 1.596 1.601 1.654 1.678 1.685 1.617 1.620 1.693 1.714 1.684 1.631 1.646 1.646 1.634 1.635 1.638 1.602 1.583 1.600 1.560 1.569 1.578 1.593 1.602 1.682 1.694 1.553 1.536 1.549 1.566 1.589 1.569 1.550 1.544 1.538 1.539 1.572 1.628 1.627 1.609 1.649 1.526 1.618 1.626 1.566 1.549 1.536 1.571 1.610 1.621 1.601 1.578 1.572 1.558 1.569 1.600 1.611 1.573 1.568 1.577 1.571 1.558 1.548 1.546 1.529 1.530 1.540 1.540 1.546 1.573 1.560 1.496 1.439 1.450 1.439 1.417 1.400 1.397 1.373 1.341 1.355 1.348 1.302 1.331 1.331 1.280 1.233 1.221 1.181 1.178 1.177 1.168 1.140 1.167 1.052 1.098 1.062 1.418 0.989 0.995
1.390 1.413 1.470 1.488 1.471 1.472 1.414 1.464 1.557 1.577 1.540 1.551 1.618 1.663 1.354 1.768 1.652 1.665 1.682 1.697 1.745 1.763 1.778 1.780 1.717 1.626 1.572 1.603 1.651 1.669 1.649 1.644 1.669 1.740 1.699 1.610 1.636 1.662 1.640 1.637 1.664 1.599 1.553 1.575 1.578 1.546 1.533 1.575 1.583 1.662 1.686 1.592 1.548 1.508 1.548 1.588 1.564 1.520 1.527 1.532 1.554 1.573 1.599 1.620 1.596 1.644 1.592 1.625 1.636 1.592 1.566 1.550 1.560 1.593 1.630 1.615 1.577 1.544 1.542 1.568 1.603 1.594 1.562 1.562 1.549 1.573 1.579 1.551 1.550 1.541 1.541 1.537 1.538 1.534 1.555 1.565 1.507 1.445 1.427 1.401 1.381 1.361 1.367 1.350 1.330 1.341 1.319 1.277 1.285 1.278 1.269 1.207 1.181 1.162 1.152 1.143 1.123 1.123 1.117 1.117 1.066 1.456 1.366 0.905 0.976
1.417 1.444 1.496 1.510 1.495 1.476 1.439 1.462 1.516 1.588 1.568 1.582 1.600 1.461 1.834 1.641 1.389 1.716 1.689 1.732 1.752 1.772 1.786 1.782 1.752 1.671 1.592 1.583 1.633 1.658 1.666 1.691 1.699 1.722 1.689 1.649 1.648 1.644 1.659 1.622 1.635 1.608 1.562 1.564 1.562 1.515 1.544 1.576 1.567 1.623 1.683 1.633 1.532 1.527 1.548 1.571 1.550 1.516 1.513 1.538 1.578 1.558 1.565 1.597 1.595 1.611 1.643 1.684 1.551 1.606 1.570 1.558 1.543 1.571 1.599 1.602 1.562 1.511 1.513 1.531 1.572 1.565 1.537 1.536 1.550 1.582 1.571 1.547 1.554 1.555 1.528 1.520 1.532 1.513 1.529 1.557 1.526 1.458 1.390 1.369 1.357 1.334 1.338 1.321 1.299 1.303 1.281 1.255 1.256 1.262 1.244 1.213 1.179 1.139 1.124 1.116 1.107 1.118 1.129 1.215 1.118 1.383 1.033 1.062 0.904
1.462 1.476 1.507 1.516 1.511 1.509 1.505 1.444 1.485 1.594 1.589 1.604 1.619 1.636 1.638 1.636 1.733 1.484 1.774 1.714 1.744 1.770 1.781 1.787 1.774 1.741 1.640 1.591 1.636 1.654 1.677 1.697 1.714 1.742 1.713 1.691 1.628 1.601 1.638 1.612 1.624 1.619 1.567 1.543 1.568 1.541 1.537 1.546 1.561 1.605 1.676 1.672 1.583 1.513 1.515 1.549 1.561 1.535 1.512 1.551 1.582 1.565 1.553 1.581 1.613 1.612 1.752 1.545 1.360 1.622 1.579 1.554 1.527 1.529 1.569 1.591 1.539 1.486 1.482 1.494 1.525 1.522 1.529 1.548 1.574 1.563 1.537 1.539 1.545 1.537 1.503 1.513 1.523 1.505 1.515 1.545 1.532 1.466 1.381 1.330 1.307 1.296 1.297 1.282 1.276 1.271 1.264 1.261 1.237 1.249 1.257 1.225 1.142 1.133 1.123 1.120 1.131 1.151 1.176 1.250 1.143 1.205 1.130 1.430 0.951
1.502 1.502 1.528 1.560 1.573 1.569 1.559 1.463 1.513 1.556 1.611 1.619 1.628 1.642 1.665 1.680 1.621 1.830 1.618 1.558 1.770 1.749 1.781 1.786 1.785 1.775 1.708 1.631 1.624 1.652 1.674 1.695 1.714 1.743 1.728 1.654 1.596 1.623 1.621 1.600 1.585 1.604 1.586 1.549 1.580 1.539 1.536 1.547 1.575 1.587 1.660 1.703 1.563 1.526 1.539 1.537 1.580 1.550 1.516 1.561 1.591 1.574 1.544 1.577 1.608 1.588 1.597 1.382 1.552 1.626 1.585 1.554 1.519 1.502 1.541 1.566 1.535 1.488 1.470 1.470 1.488 1.499 1.527 1.560 1.575 1.503 1.488 1.524 1.529 1.523 1.503 1.512 1.514 1.503 1.507 1.535 1.520 1.445 1.336 1.288 1.275 1.266 1.257 1.255 1.253 1.238 1.258 1.257 1.237 1.250 1.247 1.190 1.154 1.147 1.130 1.135 1.153 1.170 1.215 1.236 1.218 1.172 1.532 1.376 0.909
1.552 1.562 1.589 1.612 1.627 1.624 1.589 1.523 1.624 1.546 1.647 1.600 1.621 1.657 1.682 1.690 1.682 1.645 1.713 1.752 1.514 1.808 1.753 1.771 1.785 1.771 1.747 1.697 1.644 1.630 1.648 1.676 1.698 1.704 1.683 1.640 1.613 1.614 1.610 1.603 1.552 1.589 1.589 1.579 1.572 1.538 1.533 1.541 1.580 1.569 1.638 1.693 1.632 1.576 1.510 1.519 1.568 1.563 1.535 1.552 1.581 1.562 1.516 1.541 1.585 1.570 1.590 1.483 1.593 1.632 1.583 1.547 1.505 1.479 1.516 1.553 1.543 1.484 1.439 1.440 1.453 1.494 1.518 1.526 1.513 1.464 1.491 1.529 1.532 1.522 1.507 1.495 1.497 1.498 1.492 1.495 1.476 1.398 1.303 1.272 1.248 1.238 1.226 1.231 1.223 1.222 1.257 1.252 1.233 1.234 1.218 1.193 1.185 1.140 1.124 1.137 1.156 1.170 1.212 1.220 1.288 1.171 1.450 0.812 0.970
1.604 1.612 1.626 1.639 1.657 1.659 1.616 1.755 1.663 1.479 1.654 1.626 1.620 1.661 1.674 1.683 1.686 1.703 1.705 1.622 1.826 1.658 1.684 1.771 1.763 1.769 1.760 1.733 1.678 1.619 1.622 1.632 1.623 1.635 1.653 1.609 1.632 1.670 1.617 1.554 1.511 1.561 1.581 1.584 1.519 1.532 1.555 1.584 1.578 1.573 1.634 1.702 1.676 1.579 1.518 1.507 1.566 1.576 1.522 1.531 1.563 1.521 1.488 1.503 1.549 1.556 1.530 1.595 1.634 1.454 1.579 1.544 1.500 1.456 1.492 1.525 1.527 1.477 1.429 1.414 1.437 1.473 1.468 1.475 1.492 1.482 1.504 1.539 1.525 1.518 1.504 1.465 1.462 1.464 1.450 1.446 1.436 1.355 1.285 1.252 1.233 1.221 1.208 1.212 1.204 1.212 1.237 1.242 1.238 1.234 1.207 1.195 1.152 1.109 1.095 1.102 1.130 1.158 1.207 1.230 1.277 1.137 1.212 0.969 1.511
1.634 1.637 1.643 1.651 1.676 1.704 1.691 1.840 1.680 1.390 1.484 1.668 1.622 1.653 1.662 1.682 1.698 1.716 1.713 1.699 1.674 1.776 1.736 1.521 1.842 1.744 1.741 1.744 1.713 1.619 1.567 1.570 1.587 1.620 1.659 1.628 1.626 1.623 1.602 1.571 1.539 1.532 1.549 1.547 1.511 1.572 1.611 1.606 1.581 1.597 1.629 1.696 1.719 1.615 1.509 1.497 1.535 1.564 1.518 1.512 1.524 1.491 1.454 1.459 1.512 1.540 1.517 1.663 1.447 1.349 1.588 1.525 1.483 1.447 1.459 1.496 1.519 1.479 1.402 1.388 1.409 1.435 1.451 1.458 1.453 1.482 1.538 1.542 1.512 1.503 1.467 1.427 1.427 1.431 1.414 1.409 1.395 1.333 1.271 1.242 1.223 1.207 1.190 1.191 1.197 1.212 1.230 1.252 1.258 1.234 1.199 1.152 1.118 1.087 1.087 1.124 1.158 1.181 1.201 1.242 1.242 1.205 1.158 1.383 1.640
1.652 1.656 1.669 1.673 1.692 1.731 1.726 1.789 1.508 1.537 1.565 1.717 1.621 1.637 1.673 1.698 1.717 1.728 1.737 1.730 1.724 1.705 1.643 1.835 1.596 1.681 1.749 1.738 1.738 1.663 1.573 1.578 1.623 1.622 1.623 1.607 1.594 1.586 1.624 1.590 1.561 1.515 1.515 1.527 1.532 1.595 1.626 1.633 1.610 1.626 1.635 1.689 1.732 1.598 1.512 1.479 1.484 1.554 1.513 1.465 1.481 1.461 1.422 1.428 1.482 1.522 1.498 1.541 1.306 1.482 1.573 1.512 1.475 1.442 1.431 1.474 1.501 1.467 1.396 1.376 1.379 1.415 1.444 1.439 1.433 1.508 1.536 1.521 1.498 1.475 1.441 1.414 1.394 1.392 1.384 1.379 1.361 1.311 1.257 1.229 1.200 1.190 1.174 1.183 1.212 1.228 1.229 1.259 1.280 1.239 1.175 1.136 1.124 1.142 1.180 1.177 1.176 1.199 1.217 1.249 1.208 1.220 1.076 1.199 1.059
1.655 1.665 1.677 1.679 1.697 1.740 1.750 1.719 1.813 1.576 1.489 1.739 1.653 1.646 1.685 1.719 1.713 1.724 1.746 1.745 1.745 1.735 1.706 1.565 1.734 1.767 1.668 1.851 1.724 1.698 1.655 1.588 1.605 1.613 1.598 1.599 1.547 1.551 1.602 1.591 1.602 1.533 1.494 1.500 1.555 1.605 1.644 1.655 1.627 1.651 1.634 1.652 1.701 1.628 1.513 1.405 1.423 1.517 1.483 1.438 1.446 1.427 1.396 1.401 1.452 1.488 1.494 1.498 1.371 1.515 1.561 1.492 1.483 1.443 1.415 1.456 1.487 1.479 1.397 1.358 1.381 1.411 1.444 1.430 1.428 1.483 1.512 1.525 1.498 1.450 1.412 1.385 1.364 1.361 1.356 1.334 1.317 1.286 1.251 1.217 1.198 1.186 1.182 1.203 1.239 1.243 1.232 1.268 1.273 1.210 1.167 1.159 1.177 1.228 1.231 1.212 1.209 1.221 1.220 1.219 1.171 1.150 1.046 1.029 0.864
1.664 1.663 1.672 1.678 1.697 1.739 1.755 1.709 1.761 1.657 1.655 1.626 1.698 1.647 1.662 1.694 1.675 1.669 1.715 1.772 1.788 1.773 1.740 1.697 1.706 1.730 1.858 1.609 1.628 1.724 1.693 1.680 1.603 1.576 1.575 1.593 1.516 1.531 1.555 1.582 1.623 1.567 1.528 1.521 1.571 1.591 1.633 1.660 1.677 1.675 1.616 1.616 1.645 1.592 1.466 1.361 1.374 1.472 1.461 1.422 1.402 1.399 1.387 1.384 1.416 1.464 1.477 1.436 1.443 1.579 1.466 1.510 1.492 1.433 1.410 1.445 1.485 1.483 1.412 1.391 1.375 1.387 1.424 1.418 1.433 1.475 1.513 1.512 1.478 1.419 1.389 1.372 1.340 1.317 1.310 1.295 1.287 1.270 1.252 1.227 1.204 1.204 1.216 1.221 1.251 1.244 1.228 1.252 1.241 1.199 1.190 1.205 1.255 1.299 1.268 1.222 1.205 1.207 1.203 1.160 1.116 1.068 1.010 0.983 1.010
1.634 1.618 1.623 1.637 1.657 1.680 1.693 1.691 1.793 1.817 1.640 1.583 1.652 1.587 1.584 1.584 1.673 1.711 1.817 1.856 1.829 1.778 1.743 1.700 1.702 1.738 1.662 1.748 1.760 1.595 1.821 1.701 1.667 1.615 1.576 1.589 1.524 1.517 1.499 1.571 1.619 1.625 1.605 1.574 1.575 1.594 1.644 1.649 1.668 1.648 1.587 1.574 1.595 1.584 1.424 1.284 1.338 1.410 1.446 1.418 1.372 1.386 1.384 1.379 1.401 1.434 1.457 1.450 1.583 1.442 1.294 1.538 1.482 1.440 1.422 1.437 1.478 1.484 1.431 1.365 1.348 1.380 1.415 1.428 1.440 1.450 1.471 1.493 1.468 1.390 1.362 1.350 1.302 1.279 1.276 1.266 1.252 1.257 1.272 1.242 1.225 1.224 1.215 1.206 1.224 1.220 1.219 1.229 1.215 1.219 1.242 1.290 1.337 1.312 1.237 1.193 1.174 1.172 1.125 1.077 1.036 1.000 0.980 0.916 0.884
1.628 1.638 1.637 1.641 1.670 1.697 1.767 1.826 1.841 1.812 1.693 1.679 1.697 1.712 1.748 1.852 1.854 1.855 1.832 1.724 1.708 1.707 1.736 1.716 1.706 1.731 1.753 1.754 1.731 1.846 1.599 1.684 1.742 1.667 1.601 1.530 1.523 1.517 1.483 1.570 1.563 1.618 1.662 1.646 1.581 1.599 1.588 1.576 1.630 1.621 1.606 1.561 1.572 1.507 1.268 1.242 1.313 1.364 1.440 1.397 1.344 1.374 1.385 1.372 1.372 1.413 1.465 1.450 1.463 1.298 1.411 1.535 1.495 1.454 1.423 1.408 1.456 1.481 1.433 1.362 1.355 1.356 1.394 1.425 1.434 1.421 1.438 1.465 1.411 1.354 1.345 1.318 1.282 1.257 1.254 1.252 1.262 1.280 1.288 1.244 1.200 1.171 1.165 1.158 1.181 1.191 1.202 1.209 1.230 1.287 1.323 1.352 1.335 1.257 1.202 1.155 1.135 1.102 1.056 1.016 0.977 0.996 0.957 0.906 0.966
1.735 1.708 1.670 1.694 1.729 1.753 1.813 1.860 1.868 1.829 1.868 1.908 1.857 1.799 1.805 1.791 1.717 1.700 1.683 1.702 1.677 1.672 1.701 1.708 1.700 1.717 1.733 1.757 1.755 1.655 1.774 1.749 1.581 1.778 1.619 1.536 1.563 1.507 1.475 1.534 1.549 1.625 1.655 1.653 1.630 1.569 1.487 1.526 1.587 1.612 1.617 1.565 1.539 1.389 1.202 1.282 1.300 1.340 1.420 1.385 1.349 1.366 1.374 1.360 1.365 1.413 1.460 1.452 1.467 1.347 1.495 1.556 1.502 1.470 1.419 1.382 1.446 1.476 1.430 1.342 1.319 1.347 1.396 1.424 1.419 1.374 1.387 1.404 1.383 1.352 1.320 1.295 1.264 1.245 1.245 1.260 1.261 1.258 1.228 1.165 1.111 1.111 1.106 1.122 1.159 1.186 1.213 1.240 1.298 1.350 1.348 1.359 1.298 1.206 1.166 1.120 1.069 1.018 1.013 1.017 0.990 0.971 0.965 1.042 1.130
1.757 1.730 1.674 1.684 1.765 1.787 1.820 1.867 1.867 1.841 1.922 1.931 1.798 1.718 1.741 1.729 1.708 1.683 1.683 1.691 1.665 1.627 1.644 1.671 1.680 1.687 1.716 1.733 1.734 1.734 1.715 1.711 1.816 1.499 1.691 1.648 1.581 1.488 1.501 1.537 1.559 1.574 1.604 1.637 1.620 1.533 1.429 1.514 1.563 1.603 1.610 1.560 1.506 1.337 1.214 1.319 1.342 1.363 1.417 1.391 1.357 1.348 1.367 1.355 1.367 1.409 1.448 1.461 1.434 1.477 1.540 1.422 1.525 1.468 1.395 1.362 1.411 1.442 1.401 1.310 1.302 1.322 1.352 1.381 1.363 1.328 1.350 1.355 1.354 1.328 1.291 1.262 1.237 1.212 1.193 1.209 1.189 1.161 1.119 1.089 1.075 1.088 1.102 1.138 1.174 1.209 1.245 1.288 1.358 1.379 1.369 1.366 1.288 1.246 1.219 1.102 1.119 1.158 1.207 1.132 1.088 1.081 1.135 1.157 1.145
1.773 1.751 1.686 1.679 1.770 1.815 1.834 1.864 1.857 1.823 1.921 1.908 1.737 1.757 1.750 1.727 1.715 1.680 1.650 1.655 1.617 1.575 1.604 1.649 1.657 1.663 1.694 1.716 1.720 1.712 1.714 1.720 1.604 1.786 1.690 1.440 1.707 1.428 1.486 1.516 1.540 1.514 1.566 1.596 1.551 1.520 1.540 1.586 1.547 1.566 1.571 1.519 1.426 1.284 1.294 1.348 1.383 1.375 1.386 1.381 1.345 1.342 1.353 1.367 1.383 1.396 1.431 1.457 1.447 1.529 1.415 1.366 1.525 1.442 1.366 1.337 1.378 1.413 1.353 1.265 1.243 1.271 1.309 1.330 1.294 1.263 1.261 1.285 1.303 1.280 1.214 1.174 1.154 1.114 1.104 1.103 1.085 1.070 1.067 1.061 1.073 1.092 1.122 1.160 1.194 1.229 1.293 1.364 1.414 1.408 1.405 1.398 1.358 1.332 1.235 1.235 1.339 1.298 1.233 1.171 1.150 1.167 1.172 1.131 1.088
1.773 1.775 1.712 1.690 1.782 1.833 1.831 1.823 1.811 1.724 1.855 1.908 1.822 1.743 1.695 1.684 1.683 1.652 1.611 1.626 1.620 1.583 1.593 1.634 1.637 1.636 1.666 1.695 1.686 1.666 1.664 1.682 1.682 1.661 1.680 1.811 1.060 1.544 1.591 1.550 1.496 1.516 1.548 1.547 1.550 1.571 1.597 1.591 1.542 1.551 1.481 1.402 1.343 1.298 1.270 1.256 1.381 1.365 1.315 1.335 1.291 1.322 1.358 1.361 1.364 1.360 1.415 1.443 1.421 1.456 1.249 1.348 1.492 1.401 1.344 1.306 1.322 1.349 1.274 1.218 1.200 1.229 1.234 1.225 1.165 1.148 1.183 1.181 1.183 1.140 1.067 1.075 1.055 1.027 1.015 1.018 1.017 1.021 1.029 1.047 1.072 1.104 1.143 1.180 1.221 1.283 1.376 1.446 1.444 1.428 1.420 1.374 1.331 1.299 1.192 1.241 1.172 1.116 1.077 1.058 1.070 1.086 1.047 1.041 1.045
1.758 1.764 1.726 1.713 1.763 1.789 1.795 1.773 1.768 1.796 1.894 1.901 1.753 1.669 1.663 1.658 1.674 1.659 1.615 1.614 1.607 1.572 1.576 1.608 1.623 1.612 1.617 1.657 1.675 1.658 1.652 1.671 1.701 1.711 1.699 1.555 1.754 1.681 1.417 1.624 1.382 1.485 1.543 1.543 1.550 1.553 1.580 1.590 1.580 1.504 1.337 1.248 1.189 1.206 1.218 1.208 1.345 1.327 1.273 1.281 1.209 1.265 1.240 1.257 1.281 1.278 1.345 1.360 1.344 1.294 1.104 1.359 1.433 1.326 1.253 1.188 1.226 1.238 1.172 1.133 1.101 1.103 1.096 1.072 1.031 1.069 1.060 1.060 1.085 1.045 1.061 1.044 1.003 0.987 0.972 0.976 0.980 0.996 1.019 1.050 1.085 1.123 1.155 1.209 1.286 1.370 1.447 1.451 1.400 1.368 1.310 1.226 1.213 1.121 0.953 0.973 0.931 0.973 0.909 0.936 0.925 0.887 0.946 1.004 1.087
1.749 1.755 1.742 1.741 1.707 1.816 1.884 1.898 1.892 1.786 1.724 1.582 1.506 1.630 1.657 1.637 1.647 1.653 1.611 1.587 1.590 1.578 1.574 1.605 1.621 1.603 1.611 1.657 1.676 1.658 1.646 1.659 1.682 1.694 1.694 1.667 1.652 1.650 1.789 0.972 1.350 1.496 1.490 1.491 1.518 1.506 1.556 1.571 1.539 1.369 1.162 1.121 1.112 1.124 1.119 1.205 1.344 1.326 1.271 1.185 1.115 1.083 1.076 1.083 1.071 1.093 1.159 1.163 1.119 1.081 1.079 1.268 1.232 1.158 1.058 1.044 1.086 1.073 1.035 1.003 1.009 0.989 0.977 0.976 0.976 0.993 1.000 1.048 1.038 1.046 1.047 1.007 0.991 0.962 0.939 0.947 0.965 0.991 1.027 1.067 1.102 1.129 1.165 1.243 1.325 1.376 1.396 1.342 1.260 1.237 1.186 1.104 1.090 0.936 0.861 0.874 0.859 0.812 0.804 0.830 0.797 0.863 0.908 1.035 1.104
1.760 1.752 1.744 1.749 1.843 1.839 1.672 1.640 1.583 1.534 1.538 1.450 1.508 1.553 1.586 1.591 1.623 1.656 1.617 1.565 1.565 1.573 1.566 1.589 1.613 1.604 1.597 1.637 1.668 1.643 1.625 1.636 1.657 1.670 1.666 1.672 1.690 1.642 1.418 1.556 1.379 1.249 1.560 1.460 1.376 1.490 1.484 1.475 1.416 1.175 1.076 1.024 1.015 1.065 1.064 1.143 1.244 1.342 1.361 1.209 1.041 0.999 0.965 0.848 0.880 0.888 0.945 0.953 0.933 0.950 0.926 1.000 1.003 1.076 1.001 0.940 0.956 0.954 0.946 0.954 0.938 0.920 0.957 0.934 0.926 0.955 0.964 0.963 0.997 1.035 0.997 0.975 0.967 0.951 0.920 0.943 0.966 1.002 1.041 1.066 1.089 1.100 1.140 1.199 1.280 1.324 1.303 1.235 1.184 1.163 1.110 1.068 0.993 0.861 0.800 0.749 0.756 0.858 0.888 0.804 0.870 0.920 0.991 1.072 1.065
1.645 1.644 1.644 1.623 1.643 1.568 1.568 1.596 1.599 1.563 1.417 1.266 1.244 1.388 1.529 1.544 1.541 1.590 1.566 1.507 1.544 1.574 1.553 1.560 1.591 1.597 1.586 1.611 1.636 1.623 1.613 1.614 1.627 1.644 1.643 1.640 1.647 1.638 1.572 1.483 1.419 1.491 1.061 1.137 1.414 1.397 1.302 1.287 1.176 1.066 0.984 0.944 0.983 0.975 1.017 1.064 1.144 1.386 1.441 1.222 1.019 0.942 0.887 0.921 0.885 0.825 0.822 0.836 0.829 0.786 0.814 0.892 0.984 1.014 0.952 0.942 0.907 0.908 0.919 0.914 0.902 0.910 0.897 0.881 0.902 0.876 0.891 0.954 0.993 1.011 1.004 0.958 0.961 0.941 0.917 0.946 0.973 0.990 1.008 1.025 1.049 1.057 1.093 1.150 1.235 1.271 1.261 1.210 1.145 1.085 1.062 1.011 0.913 0.760 0.709 0.824 0.926 0.936 0.855 0.889 0.927 0.968 1.042 1.044 1.044
1.571 1.569 1.530 1.478 1.506 1.562 1.555 1.517 1.395 1.128 0.956 0.970 1.099 1.306 1.405 1.360 1.425 1.494 1.443 1.490 1.575 1.553 1.549 1.541 1.543 1.564 1.551 1.558 1.588 1.574 1.553 1.557 1.570 1.582 1.576 1.583 1.588 1.570 1.515 1.459 1.302 0.871 1.036 1.145 1.139 1.270 1.127 0.958 1.039 1.008 0.954 0.935 0.903 0.934 0.990 0.998 1.061 1.375 1.475 1.322 1.066 0.967 0.935 0.890 0.811 0.784 0.860 0.834 0.746 0.751 0.771 0.754 0.922 1.014 0.972 0.903 0.908 0.907 0.862 0.873 0.869 0.862 0.857 0.851 0.842 0.851 0.885 0.924 0.988 1.030 0.986 0.962 0.953 0.904 0.926 0.941 0.921 0.950 0.993 1.004 0.999 1.012 1.074 1.131 1.185 1.231 1.232 1.174 1.097 1.031 0.990 0.936 0.856 0.742 0.764 0.846 0.920 0.891 0.884 0.913 0.945 0.991 1.002 1.005 0.976
1.350 1.296 1.195 1.168 1.291 1.359 1.301 1.143 1.003 1.012 1.060 1.056 1.060 1.223 1.367 1.399 1.371 1.393 1.448 1.463 1.457 1.437 1.365 1.354 1.479 1.542 1.531 1.513 1.519 1.493 1.481 1.485 1.497 1.513 1.503 1.493 1.498 1.473 1.385 1.319 1.226 1.004 0.907 0.925 1.002 1.109 1.160 1.003 0.968 0.996 0.940 0.881 0.905 0.899 0.919 0.959 1.026 1.341 1.475 1.393 1.135 0.971 0.914 0.888 0.867 0.847 0.808 0.746 0.747 0.715 0.622 0.722 0.992 1.071 0.970 0.885 0.850 0.829 0.834 0.842 0.844 0.842 0.834 0.815 0.814 0.801 0.841 0.935 1.001 1.024 1.005 0.958 0.909 0.906 0.894 0.874 0.899 0.963 0.971 0.957 0.954 0.965 1.003 1.074 1.146 1.207 1.210 1.151 1.069 1.000 0.981 0.930 0.839 0.748 0.765 0.845 0.911 0.932 0.923 0.934 0.964 0.962 0.957 0.913 0.873
1.134 1.096 1.043 1.011 1.036 1.092 1.094 1.096 1.102 1.109 1.113 1.115 1.113 1.191 1.305 1.353 1.350 1.376 1.415 1.423 1.425 1.436 1.452 1.450 1.405 1.413 1.448 1.464 1.496 1.488 1.470 1.475 1.490 1.481 1.453 1.453 1.434 1.338 1.259 1.220 1.069 0.896 0.930 1.016 0.841 0.900 1.103 1.105 1.082 0.995 0.847 0.867 0.872 0.879 0.920 0.950 0.997 1.229 1.454 1.453 1.203 0.975 0.914 0.884 0.847 0.812 0.795 0.776 0.741 0.667 0.621 0.724 0.981 1.068 0.974 0.855 0.809 0.813 0.819 0.823 0.822 0.826 0.812 0.802 0.783 0.780 0.844 0.933 0.997 1.025 1.011 0.955 0.898 0.857 0.854 0.874 0.916 0.943 0.914 0.890 0.885 0.900 0.984 1.094 1.164 1.226 1.211 1.137 1.029 0.985 0.933 0.880 0.831 0.752 0.791 0.872 0.955 0.954 0.958 0.984 0.987 0.962 0.906 0.876 0.864
1.225 1.205 1.161 1.111 1.054 1.054 1.084 1.099 1.111 1.125 1.144 1.161 1.165 1.196 1.291 1.357 1.363 1.381 1.413 1.436 1.434 1.434 1.432 1.413 1.443 1.479 1.406 1.284 1.221 1.246 1.344 1.417 1.387 1.348 1.321 1.263 1.140 1.050 0.971 0.932 0.953 0.967 0.976 0.970 0.918 0.868 0.791 0.941 1.128 1.128 0.964 0.852 0.893 0.907 0.895 0.914 0.960 1.144 1.401 1.460 1.293 0.989 0.874 0.885 0.873 0.847 0.809 0.763 0.709 0.666 0.632 0.694 0.900 1.052 1.036 0.844 0.796 0.793 0.798 0.804 0.811 0.815 0.803 0.778 0.756 0.752 0.826 0.923 0.994 1.044 1.001 0.946 0.907 0.848 0.843 0.863 0.888 0.894 0.858 0.847 0.862 0.905 1.002 1.104 1.163 1.176 1.130 1.052 0.967 0.933 0.910 0.918 0.836 0.813 0.864 0.960 1.005 1.018 1.002 0.971 0.968 0.920 0.890 0.875 0.867
1.226 1.209 1.189 1.175 1.123 1.065 1.073 1.105 1.126 1.154 1.184 1.205 1.208 1.220 1.291 1.362 1.376 1.378 1.420 1.442 1.420 1.432 1.448 1.441 1.436 1.411 1.389 1.344 1.281 1.246 1.214 1.122 1.040 1.047 1.015 0.919 0.860 0.846 0.855 0.923 0.963 1.014 1.033 0.951 0.893 0.878 0.858 0.720 0.745 1.120 1.166 1.041 0.927 0.819 0.886 0.915 0.941 1.002 1.310 1.471 1.378 1.042 0.870 0.886 0.866 0.831 0.823 0.823 0.762 0.701 0.626 0.656 0.767 1.053 1.080 0.824 0.799 0.773 0.778 0.788 0.794 0.802 0.788 0.759 0.740 0.732 0.800 0.907 1.003 1.039 1.015 0.964 0.871 0.815 0.817 0.821 0.850 0.839 0.824 0.826 0.858 0.909 0.943 1.000 1.107 1.141 1.082 1.058 1.002 0.920 0.985 0.933 0.879 0.918 0.944 0.990 0.987 0.958 0.935 0.971 0.957 0.889 0.877 0.918 0.930
1.233 1.217 1.193 1.198 1.185 1.117 1.082 1.108 1.144 1.192 1.222 1.246 1.266 1.262 1.300 1.371 1.397 1.383 1.411 1.442 1.423 1.423 1.445 1.459 1.445 1.431 1.430 1.390 1.308 1.237 1.229 1.226 1.170 1.078 0.970 0.866 0.825 0.814 0.844 0.907 0.959 1.016 1.026 0.972 0.891 0.813 0.772 0.796 0.816 0.548 1.061 1.260 1.039 0.927 0.864 0.900 0.921 0.981 1.236 1.433 1.383 1.112 0.919 0.830 0.819 0.867 0.910 0.865 0.773 0.694 0.615 0.607 0.682 1.090 1.093 0.843 0.789 0.736 0.758 0.767 0.781 0.785 0.768 0.738 0.712 0.719 0.789 0.898 0.989 1.027 1.004 0.939 0.850 0.795 0.781 0.797 0.814 0.808 0.808 0.811 0.858 0.891 0.881 0.965 1.115 1.177 1.153 1.084 0.886 0.994 1.052 0.935 0.897 0.919 1.030 1.102 0.981 0.940 1.175 1.188 1.101 0.988 1.015 1.019 0.946
1.253 1.230 1.197 1.205 1.208 1.149 1.088 1.100 1.155 1.208 1.256 1.298 1.318 1.306 1.338 1.403 1.407 1.377 1.407 1.436 1.424 1.416 1.441 1.461 1.456 1.449 1.453 1.440 1.369 1.296 1.270 1.247 1.218 1.161 1.057 0.921 0.839 0.844 0.856 0.865 0.901 0.969 1.024 0.994 0.894 0.809 0.790 0.771 0.758 0.769 0.649 1.053 1.256 1.070 0.998 0.911 0.834 0.946 1.125 1.311 1.327 1.149 0.970 0.950 0.928 0.936 0.959 0.920 0.844 0.762 0.702 0.673 0.746 0.996 1.043 0.846 0.720 0.753 0.791 0.805 0.755 0.786 0.775 0.719 0.695 0.718 0.766 0.868 0.959 1.013 0.998 0.945 0.861 0.789 0.763 0.787 0.827 0.814 0.805 0.813 0.870 0.916 0.965 1.068 1.166 1.183 1.129 1.089 1.003 1.076 1.018 1.005 1.125 1.262 1.232 1.053 1.034 1.348 1.237 0.798 0.606 0.828 1.074 0.991 0.858
1.239 1.233 1.214 1.206 1.207 1.143 1.065 1.067 1.136 1.232 1.306 1.352 1.370 1.362 1.387 1.441 1.453 1.421 1.415 1.443 1.434 1.416 1.445 1.472 1.477 1.473 1.480 1.457 1.410 1.370 1.318 1.281 1.256 1.210 1.152 1.055 0.917 0.843 0.836 0.843 0.879 0.995 1.040 0.981 0.951 0.855 0.774 0.795 0.760 0.699 0.759 0.781 0.794 1.181 1.225 1.013 0.905 0.899 0.976 1.153 1.231 1.148 1.016 0.980 0.985 0.985 1.008 1.016 1.005 1.002 0.916 0.783 0.587 0.717 1.027 1.049 0.879 0.797 0.805 0.644 0.717 0.799 0.705 0.758 0.754 0.732 0.760 0.855 0.980 1.039 0.994 0.922 0.821 0.762 0.765 0.842 0.825 0.794 0.851 0.877 0.913 0.944 1.045 0.955 1.080 1.233 1.175 1.122 1.077 1.228 1.329 1.435 1.371 1.125 1.014 1.004 1.006 0.868 0.833 0.678 0.865 1.177 1.205 0.988 0.919
1.211 1.231 1.260 1.262 1.220 1.127 1.059 1.105 1.221 1.314 1.364 1.416 1.445 1.426 1.430 1.494 1.519 1.468 1.431 1.448 1.448 1.440 1.452 1.494 1.499 1.488 1.488 1.467 1.440 1.385 1.327 1.307 1.284 1.252 1.216 1.151 1.031 0.937 0.846 0.805 0.822 0.898 0.999 1.011 0.951 0.845 0.779 0.783 0.800 0.811 0.817 0.807 0.809 0.665 1.209 1.241 0.882 0.938 0.894 0.999 1.117 1.094 1.008 0.988 0.972 0.973 1.005 1.016 0.992 1.052 1.096 1.042 0.866 0.741 1.004 1.112 0.982 0.850 0.795 0.794 0.786 0.771 0.721 0.696 0.728 0.734 0.710 0.809 0.957 0.990 0.941 0.886 0.842 0.793 0.792 0.826 0.824 0.853 0.823 0.789 0.833 0.897 0.817 0.973 1.313 1.138 1.178 1.494 1.520 1.480 1.251 1.043 0.787 0.903 1.029 0.979 0.724 0.754 1.338 1.339 1.329 1.230 1.096 0.971 1.018
1.275 1.311 1.364 1.389 1.323 1.197 1.208 1.347 1.422 1.442 1.443 1.471 1.506 1.516 1.521 1.560 1.573 1.515 1.464 1.475 1.493 1.482 1.489 1.515 1.507 1.493 1.476 1.451 1.418 1.364 1.339 1.335 1.316 1.287 1.253 1.205 1.153 1.057 0.969 0.951 0.940 0.933 0.967 0.967 0.921 0.889 0.892 0.933 0.908 0.831 0.833 0.847 0.852 0.874 0.775 1.046 1.130 1.087 1.096 0.886 0.943 1.023 0.970 0.939 0.946 0.950 0.987 0.997 0.990 1.014 1.056 1.090 1.019 0.919 1.045 1.128 1.032 0.946 0.925 0.965 0.979 0.952 0.913 0.901 0.827 0.789 0.742 0.753 0.895 0.975 1.020 0.968 0.847 0.798 0.760 0.759 0.961 1.029 1.170 1.189 1.205 1.226 1.360 1.376 1.408 1.586 1.712 1.506 0.871 0.456 0.761 0.972 0.874 0.942 0.979 0.966 0.542 1.345 1.603 1.336 0.995 0.902 0.932 1.012 1.065
1.413 1.446 1.478 1.460 1.360 1.345 1.421 1.453 1.483 1.496 1.467 1.509 1.565 1.588 1.588 1.597 1.578 1.526 1.498 1.501 1.523 1.523 1.516 1.515 1.480 1.451 1.433 1.414 1.395 1.353 1.339 1.353 1.334 1.286 1.255 1.224 1.165 1.099 1.039 1.001 0.980 0.979 1.000 1.001 0.997 0.982 0.984 1.034 1.048 1.002 0.961 0.919 0.897 0.870 0.830 0.856 0.716 1.223 1.378 0.772 0.934 0.930 0.865 0.856 0.890 0.927 0.951 0.965 0.966 0.975 1.028 1.066 1.044 0.978 1.084 1.178 1.031 0.968 0.978 1.002 1.016 1.038 1.011 1.004 0.950 0.890 0.929 0.919 0.932 1.105 1.135 0.828 0.781 0.811 0.826 1.164 1.407 1.444 1.524 1.454 1.463 1.490 1.547 1.561 1.655 1.633 1.363 0.636 0.716 0.909 1.049 0.760 0.862 0.934 0.988 0.984 1.031 1.566 1.455 1.020 0.620 0.792 1.021 1.088 1.106
