NCOLS 125
NROWS 87
XLLCORNER 4478435
YLLCORNER 5719005
CELLSIZE 10.000000
NODATA_VALUE -99999.0000
10.0630 13.3200 15.1083 16.3813 17.3288 17.9141 17.9336 15.4126 17.3762 99.0272 113.9276 23.0258 20.1399 22.1073 21.9974 22.6177 24.1498 25.7379 27.1031 27.9528 28.8459 28.4875 27.3586 26.8118 24.4852 22.7479 23.1621 24.1981 68.5352 203.4345 183.5079 170.9418 22.3699 18.9401 15.9123 10.4106 10.3716 12.5655 15.8007 18.9776 85.0563 211.1391 150.3405 69.8196 54.1807 47.5830 37.1761 33.1474 30.0998 24.8007 -99999.0000 -99999.0000 -99999.0000 -99999.0000 -99999.0000 -99999.0000 -99999.0000 -99999.0000 -99999.0000 -99999.0000 -99999.0000 -99999.0000 -99999.0000 -99999.0000 -99999.0000 -99999.0000 -99999.0000 -99999.0000 -99999.0000 -99999.0000 -99999.0000 -99999.0000 -99999.0000 -99999.0000 -99999.0000 -99999.0000 -99999.0000 -99999.0000 -99999.0000 -99999.0000 -99999.0000 -99999.0000 -99999.0000 -99999.0000 -99999.0000 -99999.0000 -99999.0000 -99999.0000 -99999.0000 -99999.0000 -99999.0000 -99999.0000 -99999.0000 -99999.0000 -99999.0000 -99999.0000 -99999.0000 -99999.0000 18.8332 10.0000 10.0557 10.1252 10.2485 10.6488 10.8807 10.8495 10.5795 10.4893 11.3230 12.9719 14.7077 15.2041 15.5751 15.5661 15.4060 15.2582 15.5907 15.6617 16.5733 15.8783 16.9867 19.5127 19.5186 20.3918 21.2078
10.5554 14.0227 16.3949 18.4248 20.2746 17.8325 17.3859 43.9894 101.9112 58.1961 20.2211 23.5739 21.9819 19.9464 21.0630 22.4098 24.9349 27.2643 29.0258 30.2244 31.0612 30.1404 29.2414 26.1675 24.9123 25.2741 26.9580 29.2275 175.9720 241.8516 169.7678 22.4672 21.6020 17.3785 14.8195 10.3500 11.1647 14.9625 18.3964 21.4077 193.1598 178.3195 54.5252 40.5369 45.9122 43.5293 35.6364 31.6108 29.0731 25.1038 -99999.0000 -99999.0000 -99999.0000 -99999.0000 -99999.0000 -99999.0000 -99999.0000 -99999.0000 -99999.0000 -99999.0000 -99999.0000 -99999.0000 -99999.0000 -99999.0000 -99999.0000 -99999.0000 -99999.0000 -99999.0000 -99999.0000 -99999.0000 -99999.0000 -99999.0000 -99999.0000 -99999.0000 -99999.0000 -99999.0000 -99999.0000 -99999.0000 -99999.0000 -99999.0000 -99999.0000 -99999.0000 -99999.0000 -99999.0000 -99999.0000 -99999.0000 -99999.0000 -99999.0000 -99999.0000 -99999.0000 -99999.0000 -99999.0000 -99999.0000 -99999.0000 -99999.0000 -99999.0000 -99999.0000 -99999.0000 -99999.0000 -99999.0000 -99999.0000 -99999.0000 -99999.0000 -99999.0000 -99999.0000 -99999.0000 -99999.0000 -99999.0000 -99999.0000 10.0000 10.7322 10.9161 11.0111 11.0823 11.1107 11.2554 11.2059 11.2167 11.7241 13.2601 15.6539 15.7064 14.6011 15.7003 17.1822
11.0609 14.7503 17.8479 17.1690 15.3485 23.2110 85.1589 90.1304 25.0508 26.3890 26.1979 21.6878 19.3990 19.5878 20.9421 24.1823 27.4445 29.5527 31.6274 32.5434 31.1645 30.2947 28.0329 27.8426 28.8750 30.4002 32.2982 159.1351 255.6757 128.5101 37.3026 21.6489 18.7764 16.3396 10.7548 10.6507 13.7929 17.5826 20.9000 138.7284 212.5645 86.9130 32.5674 36.3533 45.4000 41.2139 35.3465 30.7567 28.3933 26.0512 -99999.0000 -99999.0000 -99999.0000 -99999.0000 -99999.0000 -99999.0000 -99999.0000 -99999.0000 -99999.0000 -99999.0000 -99999.0000 -99999.0000 -99999.0000 -99999.0000 -99999.0000 -99999.0000 -99999.0000 -99999.0000 -99999.0000 -99999.0000 -99999.0000 -99999.0000 -99999.0000 -99999.0000 -99999.0000 -99999.0000 -99999.0000 -99999.0000 -99999.0000 -99999.0000 -99999.0000 -99999.0000 -99999.0000 -99999.0000 -99999.0000 -99999.0000 -99999.0000 -99999.0000 -99999.0000 -99999.0000 -99999.0000 -99999.0000 -99999.0000 -99999.0000 -99999.0000 -99999.0000 -99999.0000 -99999.0000 -99999.0000 -99999.0000 -99999.0000 -99999.0000 -99999.0000 -99999.0000 -99999.0000 -99999.0000 -99999.0000 -99999.0000 -99999.0000 -99999.0000 -99999.0000 -99999.0000 -99999.0000 -99999.0000 -99999.0000 -99999.0000 -99999.0000 -99999.0000 -99999.0000 10.0000 10.7033 10.9838 11.0414 11.4315 10.7259
11.5686 15.5635 14.1773 23.8182 64.7799 76.3156 34.6918 27.4614 32.3139 26.5633 21.9038 19.5481 18.9474 20.1705 23.2439 27.0721 29.3490 31.2910 32.3644 31.0121 29.9612 27.8354 27.8339 30.1636 32.4870 34.1694 76.9141 250.5706 138.4646 64.7113 23.0998 22.0881 18.9481 15.1622 12.0641 13.0827 16.5018 19.7061 68.4959 198.0515 144.1130 42.5461 28.5776 34.8651 44.0890 40.3326 34.7385 30.6851 27.9616 27.1872 -99999.0000 -99999.0000 -99999.0000 -99999.0000 -99999.0000 -99999.0000 -99999.0000 -99999.0000 -99999.0000 -99999.0000 -99999.0000 -99999.0000 -99999.0000 -99999.0000 -99999.0000 -99999.0000 -99999.0000 -99999.0000 -99999.0000 -99999.0000 -99999.0000 -99999.0000 -99999.0000 -99999.0000 -99999.0000 -99999.0000 -99999.0000 -99999.0000 -99999.0000 -99999.0000 -99999.0000 -99999.0000 -99999.0000 -99999.0000 -99999.0000 -99999.0000 -99999.0000 -99999.0000 -99999.0000 -99999.0000 -99999.0000 -99999.0000 -99999.0000 -99999.0000 -99999.0000 -99999.0000 -99999.0000 -99999.0000 -99999.0000 -99999.0000 -99999.0000 -99999.0000 -99999.0000 -99999.0000 -99999.0000 -99999.0000 -99999.0000 -99999.0000 -99999.0000 -99999.0000 -99999.0000 -99999.0000 -99999.0000 -99999.0000 -99999.0000 -99999.0000 -99999.0000 -99999.0000 -99999.0000 -99999.0000 -99999.0000 -99999.0000 -99999.0000 -99999.0000 -99999.0000
10.0146 16.1435 37.2917 54.0158 32.5168 24.8652 33.4639 33.9977 27.8175 22.5247 19.9299 18.7519 19.5434 22.3291 25.9844 27.8607 30.2179 31.0729 29.9233 27.7977 26.2746 26.1231 27.8277 30.2618 33.1737 36.3694 218.6059 215.5127 40.0222 23.9238 22.0183 19.8101 17.3332 13.7963 11.7803 13.2296 16.4348 19.3932 132.8991 205.5593 87.5203 27.9499 26.7157 33.8100 41.6588 40.1677 34.4816 29.9785 27.8874 26.0533 22.0532 -99999.0000 -99999.0000 -99999.0000 -99999.0000 -99999.0000 -99999.0000 -99999.0000 -99999.0000 -99999.0000 -99999.0000 -99999.0000 -99999.0000 -99999.0000 -99999.0000 -99999.0000 -99999.0000 -99999.0000 -99999.0000 -99999.0000 -99999.0000 -99999.0000 -99999.0000 -99999.0000 -99999.0000 -99999.0000 -99999.0000 -99999.0000 -99999.0000 -99999.0000 -99999.0000 -99999.0000 -99999.0000 -99999.0000 -99999.0000 -99999.0000 -99999.0000 -99999.0000 -99999.0000 -99999.0000 -99999.0000 -99999.0000 -99999.0000 -99999.0000 -99999.0000 -99999.0000 -99999.0000 -99999.0000 -99999.0000 -99999.0000 -99999.0000 -99999.0000 -99999.0000 -99999.0000 -99999.0000 -99999.0000 -99999.0000 -99999.0000 -99999.0000 -99999.0000 -99999.0000 -99999.0000 -99999.0000 -99999.0000 -99999.0000 -99999.0000 -99999.0000 -99999.0000 -99999.0000 -99999.0000 -99999.0000 -99999.0000 -99999.0000 -99999.0000 -99999.0000
18.2005 31.8362 36.0481 19.0760 27.9787 32.4927 31.9734 29.7042 24.0291 20.3793 19.1212 18.9972 21.3650 24.2284 26.4907 28.1567 29.1734 28.1524 26.0564 24.5253 24.0500 25.6506 28.3041 30.3858 36.9468 176.8407 244.3369 56.5941 29.0683 23.2648 21.2266 19.0456 16.2466 12.7053 12.7473 15.6502 18.4728 93.8609 183.0643 151.8909 45.0389 26.2002 25.0931 32.4386 41.0554 37.4034 34.4463 30.1222 27.2402 25.5649 22.2060 -99999.0000 -99999.0000 -99999.0000 -99999.0000 -99999.0000 -99999.0000 -99999.0000 -99999.0000 -99999.0000 -99999.0000 -99999.0000 -99999.0000 -99999.0000 -99999.0000 -99999.0000 -99999.0000 -99999.0000 -99999.0000 -99999.0000 -99999.0000 -99999.0000 -99999.0000 -99999.0000 -99999.0000 -99999.0000 -99999.0000 -99999.0000 -99999.0000 -99999.0000 -99999.0000 -99999.0000 -99999.0000 -99999.0000 -99999.0000 -99999.0000 -99999.0000 -99999.0000 -99999.0000 -99999.0000 -99999.0000 -99999.0000 -99999.0000 -99999.0000 -99999.0000 -99999.0000 -99999.0000 -99999.0000 -99999.0000 -99999.0000 -99999.0000 -99999.0000 -99999.0000 -99999.0000 -99999.0000 -99999.0000 -99999.0000 -99999.0000 -99999.0000 -99999.0000 -99999.0000 -99999.0000 -99999.0000 -99999.0000 -99999.0000 -99999.0000 -99999.0000 -99999.0000 -99999.0000 -99999.0000 -99999.0000 -99999.0000 -99999.0000 -99999.0000 -99999.0000
19.8233 18.4563 21.0456 27.2116 28.5477 28.7341 28.3202 25.8422 22.3027 18.8436 18.8491 20.4046 22.5507 24.9709 25.8766 27.2510 25.9646 24.7598 23.1335 23.1480 24.5350 26.4418 28.4929 30.4180 71.9622 254.4076 113.0934 28.8843 22.6794 21.0821 19.5080 18.0411 15.0266 13.2444 14.6592 17.0373 19.4395 119.7369 182.5612 122.7104 29.7504 26.2902 26.1471 31.7479 40.0211 35.6965 33.0963 29.1660 26.2815 25.1490 23.0126 -99999.0000 -99999.0000 -99999.0000 -99999.0000 -99999.0000 -99999.0000 -99999.0000 -99999.0000 -99999.0000 -99999.0000 -99999.0000 -99999.0000 -99999.0000 -99999.0000 -99999.0000 -99999.0000 -99999.0000 -99999.0000 -99999.0000 -99999.0000 -99999.0000 -99999.0000 -99999.0000 -99999.0000 -99999.0000 -99999.0000 -99999.0000 -99999.0000 -99999.0000 -99999.0000 -99999.0000 -99999.0000 -99999.0000 -99999.0000 -99999.0000 -99999.0000 -99999.0000 -99999.0000 -99999.0000 -99999.0000 -99999.0000 -99999.0000 -99999.0000 -99999.0000 -99999.0000 -99999.0000 -99999.0000 -99999.0000 -99999.0000 -99999.0000 -99999.0000 -99999.0000 -99999.0000 -99999.0000 -99999.0000 -99999.0000 -99999.0000 -99999.0000 -99999.0000 -99999.0000 -99999.0000 -99999.0000 -99999.0000 -99999.0000 -99999.0000 -99999.0000 -99999.0000 -99999.0000 -99999.0000 -99999.0000 -99999.0000 -99999.0000 -99999.0000 -99999.0000
14.2327 19.8452 23.4359 25.1621 25.7205 25.6400 25.3528 24.2463 20.6648 18.2577 19.3462 21.2165 23.0287 23.9657 24.4848 24.6462 23.9105 22.7023 22.2195 23.0040 24.7349 26.7953 28.0396 29.8536 208.6107 197.4753 49.3857 27.2196 25.1731 20.6278 17.7544 16.5174 13.8320 13.8691 15.3516 18.0195 23.5206 108.3848 210.5055 74.9312 26.6086 26.0405 27.0500 31.6711 37.9055 34.2219 31.7203 28.4912 25.8616 24.5601 22.2463 19.5712 -99999.0000 -99999.0000 -99999.0000 -99999.0000 -99999.0000 -99999.0000 -99999.0000 -99999.0000 -99999.0000 -99999.0000 -99999.0000 -99999.0000 -99999.0000 -99999.0000 -99999.0000 -99999.0000 -99999.0000 -99999.0000 -99999.0000 -99999.0000 -99999.0000 -99999.0000 -99999.0000 -99999.0000 -99999.0000 -99999.0000 -99999.0000 -99999.0000 -99999.0000 -99999.0000 -99999.0000 -99999.0000 -99999.0000 -99999.0000 -99999.0000 -99999.0000 -99999.0000 -99999.0000 -99999.0000 -99999.0000 -99999.0000 -99999.0000 -99999.0000 -99999.0000 -99999.0000 -99999.0000 -99999.0000 -99999.0000 -99999.0000 -99999.0000 -99999.0000 -99999.0000 -99999.0000 -99999.0000 -99999.0000 -99999.0000 -99999.0000 -99999.0000 -99999.0000 -99999.0000 -99999.0000 -99999.0000 -99999.0000 -99999.0000 -99999.0000 -99999.0000 -99999.0000 -99999.0000 -99999.0000 -99999.0000 -99999.0000 -99999.0000 -99999.0000
14.0849 18.3766 20.9254 23.0297 23.7129 24.0614 23.7101 21.6460 18.2375 18.2558 19.6429 21.0487 21.7508 22.3963 22.8723 23.1412 22.0215 21.4022 22.3066 23.9416 25.5962 27.2935 29.7734 140.9023 237.8384 83.3974 28.3372 24.1363 23.5789 21.5439 17.2201 15.0269 13.8578 13.8042 15.1270 18.2191 29.7732 116.9888 214.0983 27.0123 24.9380 25.0325 26.8914 32.0996 34.9922 33.8707 30.2598 26.9471 25.4048 23.8725 21.5910 19.1927 -99999.0000 -99999.0000 -99999.0000 -99999.0000 -99999.0000 -99999.0000 -99999.0000 -99999.0000 -99999.0000 -99999.0000 -99999.0000 -99999.0000 -99999.0000 -99999.0000 -99999.0000 -99999.0000 -99999.0000 -99999.0000 -99999.0000 -99999.0000 -99999.0000 -99999.0000 -99999.0000 -99999.0000 -99999.0000 -99999.0000 -99999.0000 -99999.0000 -99999.0000 -99999.0000 -99999.0000 -99999.0000 -99999.0000 -99999.0000 -99999.0000 -99999.0000 -99999.0000 -99999.0000 -99999.0000 -99999.0000 -99999.0000 -99999.0000 -99999.0000 -99999.0000 -99999.0000 -99999.0000 -99999.0000 -99999.0000 -99999.0000 -99999.0000 -99999.0000 -99999.0000 -99999.0000 -99999.0000 -99999.0000 -99999.0000 -99999.0000 -99999.0000 -99999.0000 -99999.0000 -99999.0000 -99999.0000 -99999.0000 -99999.0000 -99999.0000 -99999.0000 -99999.0000 -99999.0000 -99999.0000 -99999.0000 -99999.0000 -99999.0000 -99999.0000
13.2581 16.5351 18.7415 21.2905 23.1734 22.3730 20.8141 18.9675 18.2585 18.5406 20.0087 19.6932 20.2611 21.4024 21.9573 21.3414 21.0132 21.8020 23.1998 25.0173 27.0629 29.2687 38.3054 230.3030 137.9924 46.0414 29.0964 27.0310 22.3668 20.6369 17.7979 13.9427 13.2894 13.1220 15.1826 18.5096 41.5104 127.0019 204.5564 28.4166 23.9592 23.8283 27.3287 31.0823 32.9303 31.8630 29.6505 25.7789 24.5880 23.0976 20.9650 19.9716 -99999.0000 -99999.0000 -99999.0000 -99999.0000 23.4417 -99999.0000 -99999.0000 -99999.0000 -99999.0000 -99999.0000 -99999.0000 -99999.0000 -99999.0000 -99999.0000 -99999.0000 -99999.0000 -99999.0000 -99999.0000 -99999.0000 -99999.0000 -99999.0000 -99999.0000 -99999.0000 -99999.0000 -99999.0000 -99999.0000 -99999.0000 -99999.0000 -99999.0000 -99999.0000 -99999.0000 -99999.0000 -99999.0000 -99999.0000 -99999.0000 -99999.0000 -99999.0000 -99999.0000 -99999.0000 -99999.0000 -99999.0000 -99999.0000 -99999.0000 -99999.0000 -99999.0000 -99999.0000 -99999.0000 -99999.0000 -99999.0000 -99999.0000 -99999.0000 -99999.0000 -99999.0000 -99999.0000 -99999.0000 -99999.0000 -99999.0000 -99999.0000 -99999.0000 -99999.0000 -99999.0000 -99999.0000 -99999.0000 -99999.0000 -99999.0000 -99999.0000 -99999.0000 -99999.0000 -99999.0000 -99999.0000 -99999.0000 -99999.0000 -99999.0000
12.2565 15.6677 18.4148 20.5782 21.0163 19.7966 18.6818 17.9861 18.8347 19.8932 19.0464 19.9149 20.1865 21.2155 20.5498 20.5966 21.3596 23.0049 24.8446 26.9570 29.0025 31.1350 169.5860 211.2023 77.6410 29.9877 30.4070 26.9199 23.9126 20.7775 17.1022 13.6854 12.3827 12.7460 15.3786 18.7870 58.2676 130.5685 194.7886 33.0126 23.6750 22.7718 26.9466 30.0788 30.7232 30.0290 28.3428 24.9047 23.6187 22.2310 21.1959 22.0888 -99999.0000 -99999.0000 -99999.0000 -99999.0000 23.2961 24.0806 21.8099 21.1257 24.4996 28.9771 33.1948 33.5707 30.9003 28.3074 25.3738 -99999.0000 -99999.0000 -99999.0000 -99999.0000 -99999.0000 -99999.0000 -99999.0000 -99999.0000 -99999.0000 -99999.0000 -99999.0000 -99999.0000 -99999.0000 -99999.0000 -99999.0000 -99999.0000 -99999.0000 -99999.0000 -99999.0000 -99999.0000 -99999.0000 -99999.0000 -99999.0000 -99999.0000 -99999.0000 -99999.0000 -99999.0000 -99999.0000 -99999.0000 -99999.0000 -99999.0000 -99999.0000 -99999.0000 -99999.0000 -99999.0000 -99999.0000 -99999.0000 -99999.0000 -99999.0000 -99999.0000 -99999.0000 -99999.0000 -99999.0000 -99999.0000 -99999.0000 -99999.0000 -99999.0000 -99999.0000 -99999.0000 -99999.0000 -99999.0000 -99999.0000 -99999.0000 -99999.0000 -99999.0000 -99999.0000 -99999.0000 -99999.0000
11.5657 15.5204 18.1645 18.7533 18.8784 18.5883 18.4213 19.9288 20.4376 20.9002 21.5580 21.1210 21.1334 20.5545 20.6150 21.2881 22.8828 24.6651 26.6976 28.2926 31.7885 89.0829 228.3598 115.5446 27.7705 28.4061 26.1994 25.4961 23.8784 20.2061 16.9373 12.9310 11.3884 12.2551 15.8516 18.7208 77.7711 130.7244 184.4696 46.1404 25.7634 23.1113 26.2908 28.2481 28.6622 28.4300 26.8866 23.4606 22.4252 22.3005 23.4042 25.2012 30.5883 -99999.0000 -99999.0000 -99999.0000 20.7044 23.6730 19.1324 18.9376 22.1965 28.9331 31.9645 32.6675 32.7263 29.5220 27.9479 27.9986 37.8148 43.6840 52.3791 59.7736 81.8396 94.4911 62.2263 31.9976 26.2877 -99999.0000 -99999.0000 -99999.0000 -99999.0000 -99999.0000 -99999.0000 -99999.0000 -99999.0000 -99999.0000 -99999.0000 -99999.0000 -99999.0000 -99999.0000 -99999.0000 -99999.0000 -99999.0000 -99999.0000 -99999.0000 -99999.0000 -99999.0000 -99999.0000 -99999.0000 -99999.0000 -99999.0000 -99999.0000 -99999.0000 -99999.0000 -99999.0000 -99999.0000 -99999.0000 -99999.0000 -99999.0000 -99999.0000 -99999.0000 -99999.0000 -99999.0000 -99999.0000 -99999.0000 -99999.0000 -99999.0000 -99999.0000 -99999.0000 -99999.0000 -99999.0000 -99999.0000 -99999.0000 -99999.0000 -99999.0000
11.2991 14.9322 16.5888 17.6757 18.5422 19.3660 20.9101 23.0953 24.2099 25.3128 25.3521 24.8047 23.6924 22.4139 22.6154 23.1662 24.1075 25.6973 27.5276 29.9438 36.7174 188.4942 184.5294 46.5780 24.2264 26.4638 24.5815 23.0590 21.7270 19.3515 16.4830 12.0441 11.0634 13.1155 15.6784 17.1653 86.6960 136.5584 163.7882 72.5676 32.4659 24.6120 25.5607 26.4541 26.9247 26.7512 25.5921 22.4285 22.4511 23.9219 25.9526 29.0681 34.4792 -99999.0000 -99999.0000 -99999.0000 16.0601 19.8441 18.6969 20.7182 24.7230 28.8381 32.6602 33.0416 29.9859 28.0299 22.8487 35.8675 42.6828 48.8012 55.0397 56.4361 76.2816 82.9561 56.0024 30.6873 25.3201 29.0784 38.3641 41.3697 35.5247 30.3703 29.9400 34.9566 39.4824 36.7987 37.0828 39.7709 -99999.0000 -99999.0000 -99999.0000 -99999.0000 -99999.0000 -99999.0000 -99999.0000 -99999.0000 -99999.0000 -99999.0000 -99999.0000 -99999.0000 -99999.0000 -99999.0000 -99999.0000 -99999.0000 -99999.0000 -99999.0000 -99999.0000 -99999.0000 -99999.0000 -99999.0000 -99999.0000 -99999.0000 -99999.0000 -99999.0000 -99999.0000 -99999.0000 -99999.0000 -99999.0000 -99999.0000 -99999.0000 -99999.0000 -99999.0000 -99999.0000 -99999.0000 -99999.0000
10.8995 14.1634 16.0203 18.0502 20.0618 23.1460 26.7069 28.1789 29.8333 30.6097 30.8359 30.4741 29.1365 27.0892 25.3965 25.8123 26.1129 27.5162 28.7678 29.9536 118.9606 228.7997 65.1777 26.1895 25.0992 23.2272 21.9378 21.6814 20.0741 17.3638 14.9555 11.0562 10.8849 13.1115 15.3453 30.9508 104.8386 139.6123 127.0033 86.8263 46.9183 28.5515 25.1426 24.9431 25.0129 24.8621 24.8479 22.3586 22.8988 25.9373 28.6665 32.2855 36.8338 -99999.0000 -99999.0000 -99999.0000 -99999.0000 17.6721 17.7022 21.0036 23.9827 28.2805 33.2895 31.7878 28.2028 30.0434 27.8489 42.0762 45.4184 47.2061 47.7458 53.0623 71.1113 73.4638 52.7231 32.9512 24.0363 24.0365 35.5612 45.9112 35.5715 28.5830 29.0138 34.5017 36.6055 35.6757 38.0217 40.5293 42.9155 40.5132 38.5570 33.5466 30.8675 33.1804 36.8525 36.7146 38.1808 43.7681 -99999.0000 -99999.0000 -99999.0000 -99999.0000 -99999.0000 -99999.0000 -99999.0000 -99999.0000 -99999.0000 -99999.0000 -99999.0000 -99999.0000 -99999.0000 -99999.0000 -99999.0000 -99999.0000 -99999.0000 -99999.0000 -99999.0000 -99999.0000 -99999.0000 -99999.0000 -99999.0000 -99999.0000 -99999.0000 -99999.0000 -99999.0000
10.4438 14.0323 17.0983 19.5958 23.5625 29.2598 30.8892 31.5158 33.0397 34.0093 35.3971 35.5482 35.4056 33.5089 29.9692 28.8979 28.8529 29.2207 30.6878 37.6956 228.4892 96.8538 40.3707 25.7368 26.1763 23.9541 20.4771 18.6895 17.9323 15.9295 12.1092 11.1732 12.3674 15.8107 17.9035 72.3133 113.7394 133.8080 87.3579 84.9219 66.5402 37.2101 27.3325 24.6605 23.9294 23.4553 24.1283 22.6652 24.0007 28.2727 30.7224 34.0758 38.8454 -99999.0000 -99999.0000 -99999.0000 -99999.0000 16.2583 16.4295 19.9024 22.9072 27.9439 32.8139 30.3937 28.8005 32.1741 30.9745 45.8245 41.3598 40.1196 45.6489 54.9374 66.4114 60.0221 50.1871 35.7709 25.5480 22.1404 32.0854 48.1679 37.3285 26.5073 28.5252 32.3115 34.5223 35.7735 37.8498 40.9164 39.4164 36.9114 35.2461 32.8533 31.2666 33.5008 36.3087 35.7726 37.7925 41.6445 38.5574 36.0873 34.0935 34.4632 34.7754 40.5322 39.4123 30.1934 42.1137 14.6605 -99999.0000 -99999.0000 -99999.0000 -99999.0000 -99999.0000 -99999.0000 -99999.0000 -99999.0000 -99999.0000 -99999.0000 -99999.0000 -99999.0000 -99999.0000 -99999.0000 -99999.0000 -99999.0000 -99999.0000
10.3025 14.7644 18.1743 23.2792 28.3015 29.1318 29.1832 29.6845 30.2124 33.4266 35.2305 37.0980 37.4439 37.3946 35.9172 32.5260 31.6927 32.0798 49.1305 199.7535 162.7387 35.6315 30.9114 25.9975 23.2193 21.5182 20.8985 17.5432 15.3078 13.5382 11.3966 11.8476 15.2378 18.1748 43.0179 88.0483 138.2278 103.8969 53.5105 71.2076 77.3970 51.5783 31.9746 25.9588 23.9450 22.5907 23.1380 23.2725 25.2690 29.7537 31.4178 35.7676 40.2641 43.2604 -99999.0000 -99999.0000 -99999.0000 14.8010 14.6861 18.4863 22.4014 27.8322 31.9147 31.3339 30.7214 33.8755 30.8243 42.3752 36.9782 38.4988 46.8434 54.9632 58.6235 51.1083 45.3852 36.5978 27.4196 23.9028 30.4272 49.1562 34.1537 26.6757 27.6862 30.5801 33.8905 34.1105 38.1136 38.6177 37.4155 34.1134 32.6802 31.7545 31.9403 33.6705 34.8694 35.4251 37.0938 37.6192 37.1889 32.7717 32.1252 36.5154 36.8106 39.0595 36.3218 26.3485 31.1096 15.5444 11.3894 14.1511 19.8331 25.4635 29.6260 31.9757 33.4947 34.1671 35.0747 32.9410 30.8392 -99999.0000 -99999.0000 -99999.0000 -99999.0000 -99999.0000 -99999.0000
10.5857 15.2694 20.3657 24.3632 25.0888 24.7423 24.8618 26.1815 28.5573 29.8803 33.7787 36.0622 37.5751 38.7378 39.0138 38.7563 40.2521 87.0329 185.6470 187.0918 37.1008 35.9699 26.4470 25.6137 23.5155 20.4208 17.6094 15.8104 13.7739 10.7367 11.4874 13.3453 16.0558 31.1956 67.6347 135.1495 121.7366 50.0841 44.9434 53.8808 72.1100 66.6757 39.1027 28.8979 24.6148 22.2540 22.6514 23.5301 26.5456 30.5088 32.4573 35.9889 40.0433 42.9184 -99999.0000 -99999.0000 -99999.0000 11.9543 13.1440 16.8839 21.5028 28.9438 31.8572 31.2270 30.7947 33.4046 28.5949 39.7622 36.1125 41.7868 47.4915 51.7454 50.0373 45.5805 42.6563 35.2017 28.9356 27.8000 32.0292 41.9753 33.9164 28.3233 27.3066 29.3933 32.2753 35.6786 36.1818 36.6110 35.5681 31.2013 30.9692 32.4535 33.2121 33.2785 33.8062 34.5030 34.8427 34.6584 34.8740 35.0077 36.4572 35.9253 36.0346 36.0526 35.2080 30.8807 18.3559 58.5003 12.5824 14.2692 21.9219 29.0989 31.3303 32.0575 32.3151 32.7639 31.6868 30.3729 29.7377 29.2342 27.1715 26.6227 25.3284 23.6772 30.5091
10.6853 15.8419 20.0939 21.2893 20.7670 21.0607 22.6805 23.6405 25.9819 29.4077 32.0352 35.2656 37.4720 41.5340 43.5672 61.7363 158.9040 201.8180 163.3400 45.8909 37.1067 30.9989 25.5881 25.9890 22.2872 20.8473 18.6038 14.7169 11.2891 10.7358 12.4534 15.4342 25.2827 49.2039 117.5144 135.2470 50.3621 36.9374 40.9492 47.9994 54.6000 67.7049 50.3302 32.8123 26.8605 22.6515 22.9100 23.9372 27.5996 31.6415 33.3265 35.7378 43.6278 42.6122 -99999.0000 -99999.0000 -99999.0000 -99999.0000 11.7067 16.3422 23.1008 28.9784 30.2935 29.2667 30.3684 30.8043 29.2554 34.8842 36.5280 41.2539 45.1607 45.1887 45.2386 42.8997 38.6495 36.4626 29.5821 28.1129 28.0820 31.5064 33.0317 28.5314 26.2512 29.8005 34.2846 35.8719 33.4878 33.2012 34.2797 34.0979 32.8807 32.2809 33.2025 32.9548 33.1459 33.5535 33.1905 33.7217 33.9874 34.4621 34.2608 33.5368 34.1522 32.1200 29.8556 31.3572 30.2610 16.3471 42.7039 21.7414 27.6372 29.8422 30.1847 31.2932 32.3404 33.1768 32.2676 31.0459 29.9323 28.0747 27.4641 25.0568 22.8961 21.9392 22.5305
10.7858 15.6556 17.7559 18.4417 19.6267 20.3755 21.1063 22.9879 24.8283 27.9060 30.9176 35.4934 40.2522 44.1960 91.9846 197.5671 161.1023 90.8570 47.4467 39.2967 37.9172 25.5374 22.7035 24.2274 22.8329 18.7301 17.0493 14.2379 10.0000 10.9349 13.5751 21.3897 35.7155 93.1036 141.7834 63.9120 31.0504 33.9982 38.4893 45.5232 48.2072 58.5421 53.9558 39.0541 29.1907 23.9708 23.1061 24.5022 29.2718 33.9372 33.6469 34.9759 43.2409 34.0201 -99999.0000 -99999.0000 -99999.0000 -99999.0000 11.4143 16.8682 24.2237 27.9685 28.4594 28.2341 28.5076 29.5394 30.2414 32.0220 34.7081 38.9324 41.5200 42.9661 40.3758 36.4442 35.2989 34.3148 30.5482 26.6112 26.5545 28.8845 28.9367 31.0240 31.8307 32.7369 34.1314 33.2874 32.3014 33.3262 34.1824 32.5064 31.8087 31.2425 31.5481 30.9782 31.2262 30.8039 29.8058 30.7496 32.5325 33.1021 31.7133 32.6662 32.0465 29.9500 28.9916 27.5634 29.6482 27.6616 29.9029 33.0371 30.0965 28.9804 31.1566 32.4930 33.2070 32.8487 30.5709 29.7486 28.1297 26.8974 26.4004 25.5165 24.3930 22.0184 21.0047
10.7062 14.6067 16.3793 17.7954 18.7388 20.2438 22.2399 24.2475 26.3492 27.8003 31.6243 36.0816 41.2532 111.1781 187.1004 81.9384 40.9415 39.8990 40.9542 39.2452 32.1776 27.8544 23.9664 21.8779 20.3270 19.1327 15.0060 10.3127 10.3800 13.1770 18.4820 26.5969 65.3552 136.4695 95.1687 31.8274 28.9846 32.3518 38.4357 44.0735 44.2803 49.3685 50.2694 43.9902 32.5872 26.9267 24.2545 24.2787 31.6166 31.4750 29.2225 28.5457 35.4500 35.2996 25.2527 -99999.0000 -99999.0000 -99999.0000 11.4215 17.1092 22.8025 24.6524 26.5675 26.9482 27.9285 28.6990 30.3257 32.3964 35.8868 37.6346 39.7994 40.7472 38.5777 33.3819 32.5907 32.5520 29.6934 28.7075 29.7437 29.1964 29.9451 30.6178 30.4276 30.3381 30.5287 30.3037 30.3202 31.3648 31.7160 30.0899 30.0063 29.6133 29.4441 28.9306 28.5255 28.1302 27.9893 29.1321 31.4843 31.8284 29.8236 30.6545 29.6949 28.7320 28.1143 27.6974 28.8046 30.5572 20.5169 39.0438 28.0931 29.5958 31.4290 31.5718 32.1139 30.8225 31.2091 31.2380 30.0932 29.9690 27.8531 27.2848 27.7552 26.4475 29.6056
10.1563 13.2793 14.9208 16.6648 18.2084 20.6353 22.8689 25.0974 27.6674 30.2078 32.9684 38.1745 109.5542 176.6432 40.2457 32.6690 33.8350 38.0600 36.1331 34.8094 32.5000 22.6936 22.3869 19.8299 18.2007 16.6073 12.6597 10.0562 11.2875 16.8473 20.7638 46.7897 126.1528 115.3223 35.9103 28.9589 28.1641 32.5916 38.8016 42.1341 44.2004 40.3787 40.2850 42.5093 39.1772 35.8750 28.0809 20.6295 26.9490 28.9833 31.4963 33.7009 32.7648 32.3606 24.8931 -99999.0000 -99999.0000 -99999.0000 10.4872 14.3445 20.1293 21.6886 25.3130 26.0071 27.1273 27.6584 28.6094 31.0511 33.0553 33.9261 34.8076 35.9504 36.2877 31.6729 30.3284 30.7934 28.7129 28.0981 28.5605 27.4502 27.4326 27.4283 27.4982 28.9754 29.2624 28.4721 28.4517 29.6244 29.5796 27.9877 28.8069 28.0669 27.8930 26.8346 26.1688 26.7128 26.6590 27.9992 29.3654 29.8267 28.9080 28.8618 27.6979 28.1324 26.7673 27.5547 27.3545 28.8572 33.5901 20.5012 25.2883 30.7878 30.3028 31.4714 31.1697 31.2321 31.0865 31.3415 32.0896 32.4326 34.1838 31.5535 29.6055 30.1287 39.6909
10.0000 12.9536 14.9985 16.7273 18.5229 20.2379 22.7632 25.3438 28.3486 31.4801 32.9289 102.1373 167.6362 49.5867 32.4111 31.6019 33.7454 35.0304 32.1776 33.0679 28.1487 23.0820 20.2980 17.9357 15.7998 13.8498 10.1663 11.3238 14.9379 19.6670 46.0948 116.4580 122.6051 40.6338 32.3673 28.0314 27.8850 34.0664 41.0019 40.1972 40.1072 40.6559 38.2415 39.5564 24.6325 29.9542 28.7145 27.0840 26.6651 28.1635 28.4335 31.9246 31.2122 30.3737 26.8752 -99999.0000 -99999.0000 -99999.0000 -99999.0000 12.3666 17.5165 20.4941 24.0804 25.7437 25.8919 26.3017 27.4126 29.5304 31.1540 31.9093 31.3532 33.2310 33.8731 30.0394 28.6313 29.3711 27.3596 26.7446 27.5565 26.6620 25.9217 26.2237 26.7396 27.3123 27.7146 26.7720 26.9476 27.3119 26.9424 26.6607 27.0498 26.6744 26.0924 24.9940 24.5830 24.8658 25.9891 27.1092 27.6602 27.7698 28.1439 26.9013 26.4478 26.6654 26.3914 26.5721 26.2508 26.8033 28.9352 15.9872 32.5392 28.4941 29.2468 28.1179 28.2733 28.9860 30.3366 32.4421 33.4824 36.1920 38.2927 40.9746 39.4417 38.4276 53.7572
10.3881 13.6321 15.9586 17.5776 19.2540 21.0743 23.3064 25.9681 28.1775 30.7758 77.3297 158.1336 68.3157 32.9514 31.6230 30.8229 32.4217 32.4918 31.6890 28.1854 24.9855 23.8278 20.0577 17.1092 14.9613 10.1604 11.1638 14.7813 25.5417 55.5208 106.3206 116.2255 49.9066 31.6373 31.8728 29.3015 26.7277 35.7629 41.3219 38.1047 26.0706 32.9921 34.3726 35.9523 36.5782 31.4807 27.5923 25.1067 26.4846 26.1079 27.2972 28.8552 29.1656 29.0998 29.5999 -99999.0000 -99999.0000 -99999.0000 -99999.0000 11.2347 15.5080 19.3698 23.3496 24.6458 24.2121 24.7340 25.7643 28.5151 29.2452 29.3246 28.8828 30.4424 31.3977 28.3416 27.3989 27.3372 25.9574 25.3331 25.6260 25.5340 25.0735 25.0873 25.3549 25.2688 25.6776 25.3074 25.0269 25.1406 24.8826 25.5451 25.4982 25.4679 24.1483 23.3560 23.3240 24.1110 25.6557 25.5353 25.3741 25.9674 26.7695 25.5993 25.4807 25.3558 24.9411 24.1434 24.6067 24.9646 26.1910 24.9308 29.2947 24.4903 23.6399 25.4539 26.3287 28.3535 31.2058 32.0169 34.1270 39.1033 42.1598 46.9387 50.9405 51.6914 71.7661
11.0169 14.2447 16.1938 18.4927 20.8890 23.0944 24.8081 26.6745 30.2143 55.8915 148.2797 95.7496 36.3963 30.9266 30.5677 30.9463 29.3242 31.7712 28.9053 25.0520 22.2148 19.8800 17.9120 15.8262 10.3140 11.1738 16.6460 30.8206 49.9218 92.9484 110.4670 66.4913 34.5868 29.2451 30.1054 31.5502 27.8721 26.8547 38.7422 35.5234 33.7040 31.8838 32.1751 32.5546 32.9580 31.4873 27.3635 25.0509 24.4215 24.3777 25.7615 26.2435 27.9238 28.1015 29.6018 27.7859 -99999.0000 -99999.0000 -99999.0000 10.0456 13.2695 18.3874 21.4680 23.3224 22.4893 23.4460 24.8361 26.7348 26.8444 27.1966 26.6161 28.1376 28.2783 26.9169 25.7655 25.2324 24.7264 23.5472 23.6759 23.9233 24.2354 23.9487 23.3522 23.6993 24.1132 23.9494 23.3273 23.3462 23.5330 23.9026 23.8544 23.3658 22.2920 22.1397 22.5707 23.7290 24.7108 23.3095 24.7504 25.0279 25.0565 23.7748 23.5371 23.5501 22.9957 22.7204 23.4974 23.6047 24.8473 27.4858 10.0000 21.1517 24.2468 24.2193 27.1811 28.3396 28.2752 29.5817 31.7271 34.6070 38.6346 41.8040 46.6114 52.3149 89.8856
11.4741 15.3900 17.7305 19.8206 22.3573 24.7552 27.2209 36.3018 76.9832 133.5121 106.9027 43.6403 34.2719 29.5388 26.9641 31.8690 29.6645 29.5067 23.5690 23.2763 21.8225 18.1548 16.3203 10.6474 10.5411 18.3657 28.6776 48.4845 90.3131 106.0858 65.8864 35.1228 36.8616 25.9110 21.5907 26.4538 28.1180 32.4300 35.8822 32.8885 30.7265 29.9993 31.2892 30.7914 30.7134 29.6565 26.9457 23.9952 23.1470 23.2515 24.0110 25.1595 26.3373 28.3386 29.5165 28.8526 -99999.0000 -99999.0000 -99999.0000 -99999.0000 11.5991 16.9737 19.8921 21.5061 21.2769 22.3567 23.0399 24.4621 24.5552 24.8342 24.4773 25.7959 25.4361 25.2462 23.8906 23.4416 22.7972 21.6261 21.6750 22.5328 23.1923 22.1829 22.7340 22.0749 21.7754 21.7314 21.3506 21.7561 22.1033 22.4601 22.6588 21.8027 21.0274 22.1350 22.6713 22.8819 23.1662 23.0281 24.0391 23.8239 23.5074 22.5012 22.0819 21.9357 21.9299 22.1553 22.8117 23.0995 24.1184 25.2657 19.3376 27.0942 25.5282 25.6168 25.7172 25.9845 26.3472 28.2578 29.2499 31.4284 34.1947 38.6203 45.1514 54.3107 152.9128
11.7326 16.3153 19.1522 21.6228 24.0238 30.3496 54.3367 96.3845 115.3819 99.7842 55.3679 38.4099 30.0044 31.0782 28.1281 27.1023 31.3934 25.9836 21.9426 20.0895 18.7296 17.5438 12.8983 10.5298 18.9707 23.0279 34.9447 78.5000 98.1080 69.6154 36.4426 22.6416 30.3127 30.1231 27.6283 25.7496 26.1498 30.1191 33.3002 32.7043 30.0192 29.2782 29.3825 29.0292 28.7639 27.6226 25.9019 22.9036 21.9162 21.9662 23.3342 24.1526 26.8559 28.2065 28.1296 27.4120 -99999.0000 -99999.0000 -99999.0000 -99999.0000 11.3191 15.6460 18.1406 19.7101 20.0442 20.8637 21.6269 22.3731 22.7862 23.1507 22.9793 23.2706 22.7953 23.2233 21.6488 21.3961 20.6572 20.1872 21.0715 22.2865 21.8678 21.2265 20.3084 20.0959 20.4509 20.0835 20.4493 21.1280 21.1026 21.6013 21.3885 21.1352 20.9619 21.6578 21.8308 22.4647 22.5684 22.4167 22.3301 22.7393 22.2644 21.9569 21.3882 21.2951 21.9400 22.1172 22.7177 23.4176 24.1762 25.4346 26.9838 21.0970 22.7335 21.8590 24.8734 24.7172 26.8646 28.2239 30.1598 31.5935 34.2032 37.1871 40.1266 45.2695 108.9353
11.7436 16.5623 20.4746 25.6668 44.1015 77.5929 92.6621 85.9903 69.8178 64.5764 49.1213 37.3184 29.1501 28.3130 26.5893 29.2562 25.2865 25.3125 22.6796 19.0626 16.6111 14.1218 11.9014 16.9781 16.3286 15.9577 33.3906 105.8642 40.8055 53.1520 37.1632 31.7476 28.6870 27.1052 25.4058 25.0887 25.4364 28.9964 30.5342 30.0814 29.0654 28.8307 28.4261 26.7206 27.0694 25.7795 24.3347 21.6053 20.9041 21.2957 22.6107 23.8104 25.9264 25.5827 25.6658 24.5522 21.6982 -99999.0000 -99999.0000 -99999.0000 10.9388 14.5443 16.2731 17.6018 18.6517 19.2450 20.3005 20.8330 21.0135 21.1859 21.0486 20.9799 20.9573 21.0639 19.9580 19.8141 19.3644 19.7217 20.8092 20.7097 19.8150 19.5150 19.3196 19.3223 19.9809 20.1096 20.2808 19.8598 19.6926 20.3606 20.4898 20.4687 20.5911 21.3499 21.8384 22.3449 22.6831 23.1837 23.0832 23.1102 22.9228 22.6278 22.6245 22.6962 22.9681 23.2933 23.2445 23.7310 23.9450 24.5838 28.5006 12.4016 18.5858 25.7707 24.6125 27.0304 27.7963 29.3674 30.8529 31.8690 33.2491 34.7962 38.9225 53.6397 96.6564
11.6181 19.2303 35.6763 66.2715 79.7685 69.5275 47.8341 47.8844 62.0466 70.1639 43.8082 31.3329 28.0576 25.5670 27.7195 25.3556 24.7202 22.1629 20.0279 17.9909 14.3820 11.5855 13.8078 13.1126 13.0471 17.4909 61.9257 90.0030 66.9681 39.3509 31.5589 27.6272 27.7433 27.2271 24.7688 23.2842 24.4695 26.2404 28.3647 27.8013 27.5976 27.2903 27.3829 24.8770 24.9556 24.1796 22.3597 20.5658 19.1581 20.2014 21.8281 23.2431 23.3476 23.6323 21.2919 20.3575 17.7994 -99999.0000 -99999.0000 -99999.0000 10.0000 12.5346 14.8289 16.4938 17.4748 18.1225 19.1892 19.1056 19.8570 19.4730 19.7904 19.3200 19.5709 19.1108 18.4189 18.0333 18.6171 18.7645 19.2960 18.5472 18.0351 18.3568 18.5203 19.1954 19.6562 19.7823 19.3045 19.1885 19.2921 18.9645 19.4481 19.9451 20.7200 21.4047 22.3942 22.8167 23.6326 24.0718 23.7574 23.5679 23.9156 24.0993 23.8251 24.2906 24.1047 25.0164 24.4020 24.4967 24.4661 24.3609 31.7581 26.2689 33.7413 26.3490 26.8966 26.4965 27.4555 28.4476 30.3546 32.7604 35.7431 40.2112 47.8898 60.0966 77.6723
21.9568 48.7596 62.9087 57.3862 40.9599 32.1316 35.0335 48.8796 62.2886 64.1507 41.1717 27.5687 25.1170 24.9096 22.4284 24.4810 23.4149 20.2933 17.1536 15.6380 11.7054 11.5313 12.3696 14.3249 23.5894 44.2602 82.9175 65.7205 45.4995 37.5442 32.9513 26.7214 25.1114 25.2999 23.3020 22.7617 22.4809 24.2377 25.5344 25.1287 26.1212 25.2219 25.6085 24.1589 21.9230 22.4617 20.0523 19.5957 18.5423 20.5582 20.0192 20.4578 20.7691 17.7196 16.8317 16.4528 15.7379 -99999.0000 -99999.0000 -99999.0000 -99999.0000 10.7986 14.0163 15.5848 16.6040 17.2680 17.5688 17.8371 18.3918 18.5744 18.6753 18.6527 18.5193 18.4901 18.3005 18.1289 17.7688 17.7359 17.4185 17.3076 17.8087 17.8495 18.6257 18.9089 19.5338 19.8540 20.1181 19.5548 19.5207 19.0132 18.9105 19.8647 20.3567 21.1546 22.7319 23.3408 24.0971 24.2450 24.7423 24.5785 24.9611 25.5547 25.3119 25.1012 25.4354 26.0585 26.2460 26.4994 26.7516 26.0192 29.3436 33.7997 22.3799 26.7096 24.1624 24.7102 25.5101 27.8659 29.9430 33.1093 36.3501 41.5215 47.9006 53.8793 61.1384
37.1549 47.1020 43.6831 35.9098 29.5091 25.2589 32.5479 47.1971 65.9782 60.5445 35.5839 24.9999 22.0976 21.2218 21.3994 21.1298 20.3535 18.1397 15.7360 11.0044 12.5216 12.6095 16.3499 24.5486 40.6027 68.8894 72.4214 52.7217 37.6910 34.7772 32.4544 28.4459 24.6380 22.8948 22.1616 21.1425 21.1305 21.7621 22.7406 24.4928 23.4616 24.4863 22.5202 22.2987 20.1666 19.3141 19.0284 18.9948 18.1341 15.4378 15.8898 16.4713 15.2937 13.6591 13.7093 14.4073 14.8433 -99999.0000 -99999.0000 -99999.0000 -99999.0000 10.0000 13.7665 15.8319 16.8283 17.1280 17.1780 17.5631 17.9872 18.2172 18.4479 18.0898 18.1363 18.4316 19.4616 19.3054 19.2033 18.5305 18.2761 18.5724 18.4151 18.7882 18.8221 19.6089 20.2420 21.1101 20.9459 21.2336 21.1110 20.7248 20.1457 20.9112 21.1211 21.3777 22.4492 23.7349 24.1352 24.0210 25.2520 24.9700 25.3970 25.9157 26.7029 26.0709 25.8863 27.2573 27.6917 27.6219 28.2771 28.5113 29.3410 33.5051 16.5020 24.0028 21.5253 20.9927 24.2075 26.7069 29.4576 32.1905 36.8291 41.0541 46.6019 48.4137 46.3887
41.5782 45.7941 38.4576 28.2656 25.1011 23.7927 30.5965 51.1773 67.5842 52.1362 34.6330 21.7431 19.6269 19.0209 19.1052 18.2479 17.6218 14.8873 11.5349 12.0305 13.3498 17.5835 28.1565 43.4795 57.3135 66.5717 49.8046 36.9165 34.8150 31.5036 30.0917 30.1852 26.2604 22.5792 20.9350 19.6273 20.0649 19.8249 21.6824 21.5672 21.8518 21.5136 21.4163 19.7657 18.8475 18.6752 16.3359 16.6933 14.6962 12.2124 11.2914 13.2857 10.4439 10.8227 12.2870 13.3960 15.0538 16.3135 -99999.0000 -99999.0000 -99999.0000 10.0137 13.9217 16.3161 17.7145 18.0116 18.5768 19.2179 19.5471 19.7757 19.7594 19.6102 19.3217 19.3587 19.6711 20.2734 19.8546 20.1057 19.7033 20.2559 19.7464 20.2736 19.7062 20.5342 21.1972 22.9774 22.5131 22.4857 22.8481 23.2039 22.2182 22.5841 22.7977 22.6017 22.8550 24.1126 25.2282 25.5682 25.2901 25.6883 26.1465 26.8531 27.6446 27.6072 26.5423 27.3988 28.7032 28.3850 29.5389 30.1848 29.6824 38.4451 30.1249 43.0346 17.7720 27.4742 27.6320 27.2409 28.6530 32.1198 35.5226 37.1746 38.1170 39.4455 36.7043
46.6508 42.6912 30.8287 26.7602 23.6863 23.4159 29.3479 50.7922 68.6047 47.9789 29.1735 19.4186 19.6378 17.7646 15.9085 16.2081 13.7052 11.5771 12.8295 14.4823 20.6583 30.5757 40.7099 48.5590 52.7893 47.0311 38.1595 32.9158 30.2724 29.5242 27.1504 27.2749 26.4240 24.1595 21.0731 19.6420 18.3889 18.8725 19.0740 20.4494 19.6637 20.5363 18.9751 17.1471 16.5047 15.2565 15.7050 17.0030 19.6859 27.7119 10.0000 10.9641 10.0000 10.3194 12.0727 14.1502 15.9095 17.7115 -99999.0000 -99999.0000 -99999.0000 10.2967 13.7363 17.2682 19.3817 19.8092 19.8203 20.3953 21.1118 21.3539 21.4285 21.3472 20.8723 20.8399 20.9138 21.9020 21.7815 21.9496 21.6854 22.4068 21.8188 22.1983 21.9582 21.7134 22.6258 24.1057 25.2351 24.2377 24.4150 25.1633 24.6689 24.0217 24.4764 23.9603 24.1078 24.5427 25.8302 26.8407 26.5823 26.2969 26.5816 27.2100 28.5216 29.1557 27.5727 27.5751 29.3502 29.4693 29.9094 30.9381 31.0478 37.7155 36.4185 22.1052 47.2750 32.4079 29.7281 28.4406 28.9926 29.6974 31.0606 33.7768 34.1409 32.7291 27.6220
46.0965 40.8257 29.0838 25.0307 22.8583 22.8051 28.3677 48.9868 65.8663 47.1685 24.6698 19.4292 18.4872 16.2330 14.9812 10.3255 12.0925 14.2654 16.0996 22.8917 30.0741 35.7048 40.5496 43.6087 40.5120 34.8779 31.7238 28.8999 27.7104 25.6299 25.7493 25.1481 24.7475 23.6347 21.6766 18.9893 16.8230 16.8779 17.8514 17.8817 17.4725 17.2042 15.8789 15.0263 13.8410 14.7930 15.7223 17.4793 18.1607 21.1870 34.7032 12.0982 13.1340 13.2547 13.7937 14.2856 16.1342 17.8003 -99999.0000 -99999.0000 -99999.0000 -99999.0000 12.7152 17.3939 20.5557 22.0293 21.9183 21.5809 22.4298 23.2032 23.3588 24.0157 23.0769 22.3661 22.7317 24.1727 24.0105 24.1596 23.9949 24.9588 25.3504 24.4290 23.9598 23.2230 23.3417 25.4869 27.0154 26.7684 25.8107 26.8176 27.0648 26.0819 26.1381 25.9535 25.3668 25.7443 26.5284 28.7357 28.5127 27.4821 27.6659 27.9527 28.6564 30.9122 29.7644 28.2359 30.2845 29.8115 30.3419 31.7105 32.5279 34.8281 38.4184 24.0934 30.5607 33.4981 29.9357 29.3051 27.1154 27.8291 28.4799 29.5819 26.1477 23.9502 22.4494
46.4067 37.8053 26.8254 23.8846 22.2318 23.2707 29.4214 47.0362 59.6035 46.8767 27.4200 18.4343 16.6991 16.2460 10.0495 12.6140 14.9434 18.3898 24.1015 27.4970 29.7334 33.7114 35.6686 34.7430 30.6690 28.8931 26.7675 25.5221 24.1820 23.5393 22.5319 21.9209 21.1874 20.9781 21.2465 19.6078 16.9663 15.4379 15.2448 15.8544 15.6036 13.9025 14.5574 13.0516 14.2758 15.1629 16.5397 17.7815 17.7283 15.7051 11.3548 37.3676 22.2477 17.4660 16.7455 16.4763 17.0889 18.9093 -99999.0000 -99999.0000 -99999.0000 -99999.0000 11.1177 16.7647 20.7451 23.9355 24.2451 23.8350 23.9240 25.3022 25.7715 26.6327 26.1717 25.1483 24.3553 25.9436 26.0104 25.8662 25.7948 26.5003 28.1718 27.5463 26.4098 25.3555 24.8066 25.9810 28.0613 28.7462 27.3506 27.3276 28.6637 28.3952 28.2266 27.5659 27.1240 27.0943 27.4790 30.3923 31.4396 29.5513 28.9527 29.4815 29.4349 31.2693 32.2665 28.9493 29.9714 30.9251 29.6804 30.1961 31.5699 32.3351 41.4827 32.2212 44.0042 20.4642 31.0365 31.0820 28.2743 25.4007 23.6339 22.0452 19.9668 17.1852 18.3857
46.3263 34.0945 24.5142 22.9090 22.4541 24.3635 31.9730 44.1582 51.9447 42.7250 31.9057 20.1661 17.8232 10.0218 12.8568 15.2137 18.2338 21.5720 23.5378 24.6331 26.9776 27.4035 29.1166 29.6511 28.6835 22.8315 21.9402 22.3718 21.0651 18.9701 18.9478 19.1947 18.9336 18.2775 18.0765 18.5259 16.0158 12.8475 13.3969 13.9012 12.1619 13.1040 13.4474 14.6554 14.9201 14.9407 15.2464 15.3174 16.3432 18.4799 18.3962 26.6699 33.8242 26.1738 21.8441 20.3039 19.4148 20.7809 19.7881 -99999.0000 -99999.0000 -99999.0000 10.9394 16.2503 20.6933 24.7464 26.3759 25.8835 26.3875 26.9473 27.9269 28.4910 28.5625 27.9525 26.3151 27.3168 29.0633 27.4971 27.7990 27.8197 30.0092 30.4597 29.2471 27.6450 27.3993 27.3103 29.0941 30.4733 28.8503 28.2277 29.1242 29.9261 30.1338 29.7348 28.8203 28.6287 28.5408 31.4813 33.6983 32.5178 30.3010 30.4249 30.1008 30.8581 33.2125 31.9603 29.3884 31.0382 30.7480 30.1592 30.4671 31.3126 39.3647 36.3699 35.5034 47.5073 27.6884 29.4372 29.5693 24.1989 21.3402 17.4732 13.4234 12.2454 13.0308
46.2784 29.3199 22.5659 22.7639 23.2834 26.5575 33.7947 41.3231 44.2220 34.7001 31.7850 22.1752 17.3893 12.7712 14.1469 15.1077 17.4450 18.7875 20.3832 23.2556 24.8181 25.7444 25.1932 26.2297 22.2704 18.3958 16.2342 15.8120 18.3650 16.6355 16.6267 16.1185 15.8021 15.0814 14.2476 13.6995 15.6165 11.8611 10.7925 10.6520 11.6239 13.0426 14.1390 15.4376 16.3404 16.4987 16.5850 16.9316 17.1944 19.1016 22.0436 26.9629 32.1590 34.3504 29.9385 25.2491 22.8594 21.4188 20.9266 -99999.0000 -99999.0000 -99999.0000 10.9657 15.6424 20.5206 25.0604 27.9665 27.9220 28.0186 29.3469 29.4918 30.9379 30.8380 29.6618 28.6430 28.4405 30.8507 30.7029 29.6123 29.3495 31.8583 32.4631 31.3338 30.3248 29.5589 29.2655 30.6974 32.2810 30.3969 29.2824 30.3665 30.9113 31.2777 31.7300 30.4788 30.2366 29.5277 31.2066 35.8377 35.2521 32.2505 31.3658 31.3318 31.3804 32.5334 33.0044 30.6068 31.9335 31.5629 31.2948 30.9066 31.4272 37.1278 37.8389 21.5810 50.4549 28.0770 25.4971 28.3273 27.2279 19.1292 16.4275 13.9614 12.5895 11.9040
44.0722 27.2964 22.5643 22.6164 25.0617 28.8147 35.4179 38.8905 36.2514 33.7130 22.7290 20.9979 12.9393 15.3355 13.0277 13.4235 15.7124 18.0032 20.4857 21.6864 23.4746 23.6832 22.2055 18.6955 19.5796 11.3079 10.6371 11.5099 13.4132 14.7607 14.4881 14.4785 14.0818 13.5474 11.9044 10.1461 10.0000 11.2526 10.0000 11.2809 13.4938 14.5078 15.6627 17.0080 18.9256 19.5216 18.9155 19.7875 18.6699 18.9814 21.1840 25.5364 30.9598 35.4301 35.9420 35.0497 28.8504 24.2749 22.7223 -99999.0000 -99999.0000 -99999.0000 -99999.0000 14.2546 19.8677 25.0466 29.2316 29.7670 29.5213 30.7977 31.7129 32.3676 33.3841 32.5456 30.1211 29.2711 31.4816 33.2319 32.6806 31.6177 33.0340 34.9716 33.6026 32.8535 31.5724 31.7187 32.5967 33.7796 32.6475 30.3671 31.2370 32.3655 31.9429 33.1184 32.0546 31.2787 31.1393 31.2108 35.8211 37.8825 34.9235 33.3797 33.2886 32.4647 33.4325 34.4063 31.4627 32.2675 33.5118 32.9993 31.5507 31.8546 34.3177 41.1421 27.0119 57.9942 23.8120 25.6219 27.8738 30.8809 -99999.0000 -99999.0000 -99999.0000 -99999.0000 -99999.0000
39.7261 28.8726 23.1262 22.8264 26.8144 31.7650 35.1050 34.6718 30.7316 23.5094 20.2804 13.1341 15.7445 13.2727 12.9714 14.1669 16.6393 18.6257 19.6064 20.9136 21.1573 20.6739 18.9909 19.8476 10.3599 10.6342 10.4643 10.5142 13.9024 15.0963 15.2899 14.6991 13.6054 12.1049 11.2730 11.2972 10.6824 10.2603 10.1960 13.3165 15.4904 16.9776 18.5030 20.0525 21.3524 22.2326 22.5352 22.1726 20.9663 18.1730 18.7166 23.4893 28.1146 32.2893 35.9317 37.1166 36.9694 30.8126 25.2090 -99999.0000 -99999.0000 -99999.0000 -99999.0000 12.3047 18.9858 24.4039 29.7369 31.5119 31.0390 32.1498 34.0067 33.6106 35.2240 34.2081 32.9799 30.9111 31.4855 34.5322 34.6609 34.0934 34.1044 37.1664 36.6657 34.7399 33.6405 33.4952 34.7700 35.4350 35.0726 31.9245 32.0058 33.5852 33.2045 34.2411 33.3603 32.6283 32.3134 32.5734 36.4252 39.1382 38.1085 35.4962 35.2342 34.0193 34.0947 36.1212 33.1128 31.9189 33.5571 34.7355 33.0706 31.9702 33.2346 40.8074 36.8109 -99999.0000 -99999.0000 -99999.0000 -99999.0000 -99999.0000 -99999.0000 -99999.0000 -99999.0000 -99999.0000 -99999.0000
35.1711 28.4035 23.5929 23.8734 28.9577 31.5412 31.2266 25.6557 23.9467 18.2190 14.7397 15.1483 13.0071 13.2215 14.1085 16.2222 17.6292 19.1965 21.2122 21.6314 21.9255 21.0535 19.8991 17.8616 18.5472 15.9541 15.1710 16.9200 19.6244 17.5412 17.2877 16.3946 14.6887 13.8938 13.9143 14.3883 13.6052 12.9227 13.4048 15.2116 18.0378 19.1013 20.1517 21.8657 23.4870 25.2340 25.5999 26.5448 22.7857 18.0663 16.7521 19.8176 25.6037 30.7247 32.9164 35.6760 38.7216 36.9289 31.0423 22.8355 -99999.0000 -99999.0000 -99999.0000 11.5912 17.8536 23.5391 29.8205 32.8190 32.7791 33.2456 35.2689 35.4857 36.6354 36.4776 35.5686 32.2453 32.0064 34.4886 36.8419 36.3526 35.4612 38.6504 39.5838 36.8934 35.4391 35.5155 36.7859 37.5363 36.7916 34.1596 32.7571 34.2811 35.2061 35.3271 35.2885 33.8302 33.9818 33.9686 37.3538 40.9538 40.3853 37.8230 36.7869 35.8328 34.5811 37.0468 36.7633 31.9799 33.4613 34.8809 34.9544 -99999.0000 -99999.0000 -99999.0000 -99999.0000 -99999.0000 -99999.0000 -99999.0000 -99999.0000 -99999.0000 -99999.0000 -99999.0000 -99999.0000 -99999.0000 -99999.0000
31.3640 25.9218 24.7336 24.2066 25.0259 32.2653 24.2170 14.8878 20.0407 17.5159 15.5337 12.5116 12.4104 13.9693 15.5063 17.7539 20.2289 21.5389 22.3552 22.0411 22.5460 22.9386 22.0216 20.8680 22.2857 21.5603 21.1545 21.9004 22.5190 21.7343 21.1886 17.8010 16.3883 16.5843 16.7921 17.5654 16.2158 14.4027 15.0285 17.0818 19.5088 21.0647 23.0697 24.0295 27.0075 26.2919 29.6721 28.7764 24.7882 19.2173 17.3592 17.6647 20.4873 31.5303 34.1103 34.6040 38.0992 40.0070 37.2759 30.6400 -99999.0000 -99999.0000 -99999.0000 11.3738 17.2858 22.9970 28.7929 33.9742 33.9707 34.8588 36.8122 37.3912 37.6866 38.6218 37.4263 34.7149 33.1617 34.7702 37.5498 37.7523 36.7042 39.9401 42.1490 39.9662 38.1524 36.8623 38.5261 39.5957 39.6472 35.8763 34.3975 35.5037 35.4973 36.8650 37.3469 35.2954 35.7322 35.5271 37.2795 42.3718 43.2874 40.0010 38.3277 37.7278 35.7283 36.4470 -99999.0000 -99999.0000 -99999.0000 -99999.0000 -99999.0000 -99999.0000 -99999.0000 -99999.0000 -99999.0000 -99999.0000 -99999.0000 -99999.0000 -99999.0000 -99999.0000 -99999.0000 -99999.0000 -99999.0000 -99999.0000 -99999.0000
27.4776 23.2359 28.4529 21.0249 14.2874 31.5142 21.1268 18.9752 15.9550 14.2476 12.2829 11.5961 12.6558 14.2430 16.6912 18.8067 20.2104 21.7457 22.7712 23.9671 24.2943 25.2730 24.0962 24.1805 24.8498 26.2480 26.0915 26.9842 27.5539 24.9416 22.8215 19.6752 18.9559 19.3323 20.7656 19.6277 17.3212 16.0092 16.7631 18.8594 21.0297 23.6742 23.4452 25.4717 27.5416 30.0889 32.7791 31.7353 26.6537 21.1454 15.9202 20.6234 26.6100 28.2074 31.7486 35.5633 37.9484 40.6311 41.1596 36.5651 -99999.0000 -99999.0000 -99999.0000 -99999.0000 15.9589 22.4493 28.1578 33.7682 35.6092 35.5335 37.3829 39.7732 38.5645 40.6062 39.5925 37.2286 34.5987 35.0814 38.1514 39.8768 37.8947 39.9558 44.0878 42.5326 40.9183 39.4221 40.2975 41.8910 41.6292 38.9962 35.9782 36.7959 37.0766 37.0878 38.9856 36.8363 37.0189 37.3742 37.5712 43.1046 46.4551 41.9922 -99999.0000 -99999.0000 -99999.0000 -99999.0000 -99999.0000 -99999.0000 -99999.0000 -99999.0000 -99999.0000 -99999.0000 -99999.0000 -99999.0000 -99999.0000 -99999.0000 -99999.0000 -99999.0000 -99999.0000 -99999.0000 -99999.0000 -99999.0000 -99999.0000 -99999.0000 -99999.0000
26.8688 12.0146 22.6420 28.9537 25.9823 19.9722 17.1695 15.0125 12.9415 11.4144 11.8607 12.8118 14.6974 16.3180 18.0643 19.5097 21.4435 22.8030 24.5212 24.4218 24.5347 25.8723 28.0872 27.5355 28.6405 29.9150 30.0904 31.0627 30.4017 27.3035 24.1027 23.0428 21.7608 22.4170 22.4687 20.6511 19.0035 17.7475 19.0269 19.7775 21.8674 24.6351 25.6122 27.1762 28.9091 31.9024 35.0929 34.0153 28.6734 24.2956 21.0434 16.9744 20.7884 28.7712 33.1333 33.6793 37.1618 39.5816 41.6901 40.4312 33.5514 -99999.0000 -99999.0000 -99999.0000 14.3339 21.6840 27.1108 33.4679 36.2226 36.3018 38.2986 40.9906 41.0228 42.0023 41.2216 39.9137 37.2189 35.8250 38.6659 40.9460 39.7233 39.8269 45.1569 46.1601 42.7932 41.6731 41.9169 44.0658 44.4918 42.2716 37.8706 37.6270 38.8890 38.4330 39.6690 38.6150 38.0674 -99999.0000 -99999.0000 -99999.0000 -99999.0000 -99999.0000 -99999.0000 -99999.0000 -99999.0000 -99999.0000 -99999.0000 -99999.0000 -99999.0000 -99999.0000 -99999.0000 -99999.0000 -99999.0000 -99999.0000 -99999.0000 -99999.0000 -99999.0000 -99999.0000 -99999.0000 -99999.0000 -99999.0000 -99999.0000 -99999.0000 -99999.0000 -99999.0000
17.1054 23.9867 25.5656 20.5064 18.6898 16.8520 14.1210 11.8409 11.1838 11.8001 13.1655 14.9212 16.5609 18.2746 19.6145 21.7669 22.4917 23.1293 24.6840 26.9209 28.2934 29.0333 31.0340 31.0939 31.1582 32.4024 33.1204 35.4530 34.7160 30.9487 27.6496 25.5452 24.4414 24.2446 24.3347 23.0059 20.4612 19.7433 20.4503 21.1310 23.1527 25.4438 27.6827 28.2906 28.6041 32.7191 36.3211 36.7469 31.6259 26.3094 23.7211 21.6046 21.6825 27.7799 33.7645 34.3078 35.7633 38.3233 36.8230 39.2577 39.9515 -99999.0000 -99999.0000 -99999.0000 13.6361 20.8516 26.0233 32.0589 36.8459 37.4562 38.6562 41.9302 42.3808 43.7329 43.6583 42.5942 39.6915 37.4090 38.6500 42.1944 42.0044 40.1419 44.5512 48.4394 45.6261 44.2631 43.5441 45.7266 47.2881 45.5647 40.5467 39.3172 -99999.0000 -99999.0000 -99999.0000 -99999.0000 -99999.0000 -99999.0000 -99999.0000 -99999.0000 -99999.0000 -99999.0000 -99999.0000 -99999.0000 -99999.0000 -99999.0000 -99999.0000 -99999.0000 -99999.0000 -99999.0000 -99999.0000 -99999.0000 -99999.0000 -99999.0000 -99999.0000 -99999.0000 -99999.0000 -99999.0000 -99999.0000 -99999.0000 -99999.0000 -99999.0000 -99999.0000 -99999.0000 -99999.0000
17.1265 22.5038 19.4791 17.2157 15.4593 13.2735 11.1408 10.6466 11.5675 13.9326 15.8494 17.7278 19.6689 20.1659 20.9826 21.9724 23.6817 25.5375 27.5931 28.5753 29.0502 29.7020 30.1191 32.4251 33.5172 36.3454 36.9325 39.2608 39.1646 35.7337 31.6104 28.1131 27.6955 26.8558 26.0968 23.8847 22.1097 21.7889 22.2096 23.0643 23.4772 25.4778 27.9232 29.3067 31.5611 34.7999 38.1659 38.2609 32.1402 28.3732 26.9438 24.8019 23.3508 27.1341 35.3463 38.4452 37.0065 37.3335 37.7173 35.4283 33.3550 -99999.0000 -99999.0000 -99999.0000 12.9552 20.2466 25.5577 30.2718 36.1079 37.7441 38.6061 42.6697 44.3907 44.7899 45.7280 44.0718 42.6054 39.8834 39.7113 42.6379 42.8945 41.6488 44.7206 48.7432 48.7569 46.7089 45.0422 46.6107 -99999.0000 -99999.0000 -99999.0000 -99999.0000 -99999.0000 -99999.0000 -99999.0000 -99999.0000 -99999.0000 -99999.0000 -99999.0000 -99999.0000 -99999.0000 -99999.0000 -99999.0000 -99999.0000 -99999.0000 -99999.0000 -99999.0000 -99999.0000 -99999.0000 -99999.0000 -99999.0000 -99999.0000 -99999.0000 -99999.0000 -99999.0000 -99999.0000 -99999.0000 -99999.0000 -99999.0000 -99999.0000 -99999.0000 -99999.0000 -99999.0000 -99999.0000 -99999.0000
15.5635 18.8835 15.0387 13.7873 11.8008 10.7537 10.7185 12.0098 13.9690 16.1504 17.9682 18.9736 20.4963 22.0388 23.2077 24.0026 24.4983 24.4154 25.5911 27.7646 29.6890 31.3587 32.0381 32.1993 33.5212 36.3679 40.7691 43.7441 45.6954 41.9742 35.8399 31.0537 30.0674 28.0787 26.7913 26.4157 24.2336 23.4528 23.7064 24.5529 25.5503 25.9562 29.9736 29.5453 32.6176 36.8504 41.1307 39.4966 33.6289 30.5301 29.4235 26.9047 25.4652 26.0645 33.7770 45.2791 48.5628 35.1101 28.2234 39.4791 47.2599 -99999.0000 -99999.0000 -99999.0000 -99999.0000 18.9076 25.3629 28.9453 35.1009 38.0698 37.8125 41.8516 45.8665 45.6775 47.8115 46.4292 44.4618 42.4922 41.0154 43.3112 44.8247 42.9908 44.7411 -99999.0000 -99999.0000 -99999.0000 -99999.0000 -99999.0000 -99999.0000 -99999.0000 -99999.0000 -99999.0000 -99999.0000 -99999.0000 -99999.0000 -99999.0000 -99999.0000 -99999.0000 -99999.0000 -99999.0000 -99999.0000 -99999.0000 -99999.0000 -99999.0000 -99999.0000 -99999.0000 -99999.0000 -99999.0000 -99999.0000 -99999.0000 -99999.0000 -99999.0000 -99999.0000 -99999.0000 -99999.0000 -99999.0000 -99999.0000 -99999.0000 -99999.0000 -99999.0000 -99999.0000 -99999.0000 -99999.0000 -99999.0000 -99999.0000
12.7450 14.5689 12.1004 10.6503 10.6713 11.6587 13.4639 14.9194 16.0207 17.0714 18.9263 20.6244 22.2875 22.8758 23.3949 24.5089 25.5425 25.7890 26.0443 27.5649 28.7273 31.3672 34.4275 36.9372 37.2099 36.1242 38.7413 43.1225 48.0179 50.3867 41.0849 35.3230 32.2313 29.6347 28.4808 27.0633 26.4289 25.2783 25.1015 27.0340 26.8587 28.1011 26.8449 32.5449 35.5802 38.2652 44.9478 43.6685 34.9028 30.8352 30.6293 29.4351 28.0744 27.0955 27.8473 26.7244 43.0749 57.5979 43.6911 37.9395 35.2001 49.6100 -99999.0000 -99999.0000 -99999.0000 16.0660 24.7145 28.2741 33.3236 38.0171 37.7326 40.1573 46.0921 47.5904 49.2640 47.3401 47.4468 45.3592 -99999.0000 -99999.0000 -99999.0000 -99999.0000 -99999.0000 -99999.0000 -99999.0000 -99999.0000 -99999.0000 -99999.0000 -99999.0000 -99999.0000 -99999.0000 -99999.0000 -99999.0000 -99999.0000 -99999.0000 -99999.0000 -99999.0000 -99999.0000 -99999.0000 -99999.0000 -99999.0000 -99999.0000 -99999.0000 -99999.0000 -99999.0000 -99999.0000 -99999.0000 -99999.0000 -99999.0000 -99999.0000 -99999.0000 -99999.0000 -99999.0000 -99999.0000 -99999.0000 -99999.0000 -99999.0000 -99999.0000 -99999.0000 -99999.0000 -99999.0000 -99999.0000 -99999.0000 -99999.0000 -99999.0000
10.7823 11.5685 11.3488 11.3440 12.5419 14.3989 16.8122 18.4786 18.7694 18.8117 19.8754 21.5908 23.0400 24.5470 24.8471 25.4903 26.6130 26.7478 27.7344 28.4780 30.5944 31.6919 33.6491 37.3524 38.8171 39.2934 37.3371 41.6892 49.8905 56.8771 49.2051 38.8932 35.2772 32.8657 30.3487 30.1310 30.3829 28.9762 28.8994 29.5456 32.1610 26.6812 19.5073 21.7225 33.2463 40.8398 49.9026 54.9662 42.8733 31.8283 29.4223 24.2514 20.1189 28.2011 33.3851 31.1978 31.1401 39.4914 50.6152 41.4151 37.2910 43.4823 -99999.0000 -99999.0000 -99999.0000 14.1125 23.1817 28.0656 32.0746 37.0893 38.1070 39.3461 45.0532 48.3285 -99999.0000 -99999.0000 -99999.0000 -99999.0000 -99999.0000 -99999.0000 -99999.0000 -99999.0000 -99999.0000 -99999.0000 -99999.0000 -99999.0000 -99999.0000 -99999.0000 -99999.0000 -99999.0000 -99999.0000 -99999.0000 -99999.0000 -99999.0000 -99999.0000 -99999.0000 -99999.0000 -99999.0000 -99999.0000 -99999.0000 -99999.0000 -99999.0000 -99999.0000 -99999.0000 -99999.0000 -99999.0000 -99999.0000 -99999.0000 -99999.0000 -99999.0000 -99999.0000 -99999.0000 -99999.0000 -99999.0000 -99999.0000 -99999.0000 -99999.0000 -99999.0000 -99999.0000 -99999.0000 -99999.0000 -99999.0000 -99999.0000 -99999.0000 -99999.0000
10.0000 11.9819 14.5224 15.8028 16.5524 17.5097 20.2822 22.4326 23.2919 21.9955 21.2419 22.3030 24.2354 25.1171 25.8109 26.5416 27.9342 28.2062 28.6566 29.9667 30.8716 31.6094 32.4883 35.2401 38.8836 42.3227 42.2441 41.5434 47.7126 45.7779 66.4019 35.7396 37.0190 37.1433 33.7434 32.1847 34.6834 31.3269 25.1873 33.1389 24.7424 23.8460 32.8491 20.0394 19.0967 32.5141 43.3018 56.4290 51.6737 36.5872 35.8098 31.4294 25.6332 26.4928 29.8243 33.1696 31.8468 36.2023 42.4863 41.1330 38.6866 40.8389 -99999.0000 -99999.0000 -99999.0000 -99999.0000 20.6502 27.5013 30.5807 -99999.0000 -99999.0000 -99999.0000 -99999.0000 -99999.0000 -99999.0000 -99999.0000 -99999.0000 -99999.0000 -99999.0000 -99999.0000 -99999.0000 -99999.0000 -99999.0000 -99999.0000 -99999.0000 -99999.0000 -99999.0000 -99999.0000 -99999.0000 -99999.0000 -99999.0000 -99999.0000 -99999.0000 -99999.0000 -99999.0000 -99999.0000 -99999.0000 -99999.0000 -99999.0000 -99999.0000 -99999.0000 -99999.0000 -99999.0000 -99999.0000 -99999.0000 -99999.0000 -99999.0000 -99999.0000 -99999.0000 -99999.0000 -99999.0000 -99999.0000 -99999.0000 -99999.0000 -99999.0000 -99999.0000 -99999.0000 -99999.0000 -99999.0000 -99999.0000 -99999.0000 -99999.0000 -99999.0000 -99999.0000 10.0000
10.9224 13.2186 15.9384 19.4872 21.4197 20.7911 22.4689 25.2196 28.1170 28.9759 27.7875 25.4539 26.1807 26.9563 26.7965 27.9125 28.2395 29.3314 28.8782 28.9649 29.4006 31.3077 32.4371 33.8942 37.6330 41.7448 43.9981 45.9174 43.1387 48.0892 78.9820 43.7240 34.1213 38.6514 36.6767 36.4386 42.8138 32.7310 28.5239 33.3452 28.6670 39.0357 15.9288 14.9255 16.0568 21.2527 36.7391 61.5811 61.2929 43.6957 34.2973 31.8583 29.6363 28.6284 30.8407 33.1009 34.3839 36.0985 40.8443 38.3901 37.3153 38.7094 -99999.0000 -99999.0000 -99999.0000 -99999.0000 -99999.0000 -99999.0000 -99999.0000 -99999.0000 -99999.0000 -99999.0000 -99999.0000 -99999.0000 -99999.0000 -99999.0000 -99999.0000 -99999.0000 -99999.0000 -99999.0000 -99999.0000 -99999.0000 -99999.0000 -99999.0000 -99999.0000 -99999.0000 -99999.0000 -99999.0000 -99999.0000 -99999.0000 -99999.0000 -99999.0000 -99999.0000 -99999.0000 -99999.0000 -99999.0000 -99999.0000 -99999.0000 -99999.0000 -99999.0000 -99999.0000 -99999.0000 -99999.0000 -99999.0000 -99999.0000 -99999.0000 -99999.0000 -99999.0000 -99999.0000 -99999.0000 -99999.0000 -99999.0000 -99999.0000 -99999.0000 -99999.0000 -99999.0000 -99999.0000 -99999.0000 -99999.0000 -99999.0000 10.0000 10.6958 10.8952 11.8051 13.3782
11.4299 15.3732 16.4261 18.3742 22.6283 25.0667 26.0706 27.2013 29.7937 33.7420 37.8532 39.3054 38.6481 33.3846 31.8101 29.8860 28.9597 29.2037 30.4717 30.1141 30.3438 30.2392 30.6134 31.7729 34.0977 40.6967 45.0360 51.3623 33.6662 59.7428 117.4956 53.2217 35.4401 44.2036 44.3466 53.1370 36.3232 19.2264 30.0798 43.5949 31.9229 29.5477 23.2057 18.0689 19.6021 20.7503 25.2301 37.6623 68.6349 60.3237 40.1408 32.9332 30.7323 30.4371 32.6035 33.7838 35.9343 36.9860 40.7551 38.2675 35.3214 36.6151 29.9273 -99999.0000 -99999.0000 -99999.0000 -99999.0000 -99999.0000 -99999.0000 -99999.0000 -99999.0000 -99999.0000 -99999.0000 -99999.0000 -99999.0000 -99999.0000 -99999.0000 -99999.0000 -99999.0000 -99999.0000 -99999.0000 -99999.0000 -99999.0000 -99999.0000 -99999.0000 -99999.0000 -99999.0000 -99999.0000 -99999.0000 -99999.0000 -99999.0000 -99999.0000 -99999.0000 -99999.0000 -99999.0000 -99999.0000 -99999.0000 -99999.0000 -99999.0000 -99999.0000 -99999.0000 -99999.0000 -99999.0000 -99999.0000 -99999.0000 -99999.0000 -99999.0000 -99999.0000 -99999.0000 -99999.0000 -99999.0000 -99999.0000 -99999.0000 -99999.0000 -99999.0000 -99999.0000 10.0000 11.0833 10.1138 12.0250 11.4121 14.9083 15.7434 16.2470 16.7681
12.1641 16.3563 19.0460 23.4329 18.5511 24.5727 29.0802 30.7850 31.5247 33.5920 38.7665 47.6247 53.9941 58.6186 57.4499 56.2495 52.9434 43.4681 35.5530 32.1197 30.4909 29.8834 31.2549 32.6941 34.2211 35.6227 42.9482 50.9685 44.7649 66.5558 33.1650 40.1677 29.6136 48.2731 70.0219 55.3300 26.9824 25.5792 30.7068 43.3695 34.8528 26.5650 24.2984 20.4995 20.1781 21.7968 23.1428 31.9369 58.7984 67.1801 51.9273 35.2257 31.9292 32.1179 34.1243 34.1163 37.2981 38.9090 40.6490 39.4317 34.0431 35.3169 33.4054 -99999.0000 -99999.0000 -99999.0000 -99999.0000 -99999.0000 -99999.0000 -99999.0000 -99999.0000 -99999.0000 -99999.0000 -99999.0000 -99999.0000 -99999.0000 -99999.0000 -99999.0000 -99999.0000 -99999.0000 -99999.0000 -99999.0000 -99999.0000 -99999.0000 -99999.0000 -99999.0000 -99999.0000 -99999.0000 -99999.0000 -99999.0000 -99999.0000 -99999.0000 -99999.0000 -99999.0000 -99999.0000 -99999.0000 -99999.0000 -99999.0000 -99999.0000 -99999.0000 -99999.0000 -99999.0000 -99999.0000 -99999.0000 -99999.0000 -99999.0000 -99999.0000 -99999.0000 -99999.0000 -99999.0000 -99999.0000 10.0000 10.8472 10.8363 10.8852 11.2957 13.3012 15.4667 15.1915 12.3022 17.3753 16.8015 19.6779 21.2926 19.6233
12.1155 17.4563 19.3535 20.7461 29.9110 21.6112 24.4176 30.5221 34.9489 35.0229 33.7192 35.2359 39.7494 48.3758 61.8366 66.9902 69.5095 71.6370 68.2138 48.3037 36.7751 32.5280 32.3468 34.0209 35.2029 33.4180 35.8341 43.1248 52.4083 41.5434 30.0590 31.5283 38.6945 13.9492 48.5934 83.8389 27.5008 25.6649 30.1750 38.4032 41.6683 26.3083 24.3561 22.7169 22.0715 23.0036 23.8207 28.5836 49.1268 69.3146 60.2591 40.1257 33.8259 33.0286 36.2403 35.1132 38.4158 40.4986 41.0214 40.7528 34.3224 33.7843 33.7304 -99999.0000 -99999.0000 -99999.0000 -99999.0000 -99999.0000 -99999.0000 -99999.0000 -99999.0000 -99999.0000 -99999.0000 -99999.0000 -99999.0000 -99999.0000 -99999.0000 -99999.0000 -99999.0000 -99999.0000 -99999.0000 -99999.0000 -99999.0000 -99999.0000 -99999.0000 -99999.0000 -99999.0000 -99999.0000 -99999.0000 -99999.0000 -99999.0000 -99999.0000 -99999.0000 -99999.0000 -99999.0000 -99999.0000 -99999.0000 -99999.0000 -99999.0000 -99999.0000 -99999.0000 -99999.0000 -99999.0000 -99999.0000 -99999.0000 -99999.0000 -99999.0000 10.0000 10.7293 11.0989 11.7240 12.2092 14.8223 15.1974 15.0922 15.1451 17.2104 18.4414 20.8824 13.7101 25.3191 17.6247 20.1678 24.4227 23.6584
11.3920 17.2917 21.3919 22.2505 21.0698 31.1503 35.9047 19.1338 22.2978 28.8051 30.9294 29.8859 31.0723 30.8546 32.8045 41.4137 50.6363 66.6818 78.3720 88.6193 71.9503 44.3076 35.5105 37.9076 39.1657 37.9374 34.4024 33.2119 33.9057 31.3742 26.7183 28.1736 38.6648 32.0996 35.1299 77.8393 58.7897 27.2752 29.5731 38.4413 42.0992 30.3282 26.2323 23.9471 24.1056 24.1511 25.8118 29.2519 37.7220 65.8694 67.0796 48.1172 37.6900 33.1415 37.3971 38.0525 38.4524 42.0799 41.7643 42.3451 35.4321 33.0082 33.2648 -99999.0000 -99999.0000 -99999.0000 -99999.0000 -99999.0000 -99999.0000 -99999.0000 -99999.0000 -99999.0000 -99999.0000 -99999.0000 -99999.0000 -99999.0000 -99999.0000 -99999.0000 -99999.0000 -99999.0000 -99999.0000 -99999.0000 -99999.0000 -99999.0000 -99999.0000 -99999.0000 -99999.0000 -99999.0000 -99999.0000 -99999.0000 -99999.0000 -99999.0000 -99999.0000 -99999.0000 -99999.0000 -99999.0000 -99999.0000 -99999.0000 -99999.0000 -99999.0000 -99999.0000 -99999.0000 -99999.0000 10.0000 10.7086 10.9641 11.6705 12.9712 14.4127 15.7919 16.8212 15.6481 17.2452 18.6002 18.0804 17.9840 19.8562 21.0972 24.5585 16.4894 26.7924 21.6864 23.9983 26.1969 25.9325
11.0496 16.0295 20.4954 24.2561 24.0713 23.2406 23.3085 44.8400 17.9241 18.3181 21.8983 25.4660 25.7886 28.1511 31.6641 34.7624 38.6493 41.3479 53.1045 65.9897 92.8001 86.5706 57.1691 40.8070 41.5158 45.1526 42.4058 34.2636 28.6734 27.4554 25.0696 26.8234 34.9231 41.0024 37.0846 63.9147 75.0481 45.3330 31.4403 37.2009 41.4115 34.6190 29.7247 25.5583 25.2391 25.6906 27.5446 30.0243 34.2068 58.4384 69.6865 56.0919 41.3396 35.6460 37.1325 41.0337 39.0435 43.1010 43.0554 43.3512 37.2497 31.6676 32.4696 25.3487 -99999.0000 -99999.0000 -99999.0000 -99999.0000 -99999.0000 -99999.0000 -99999.0000 -99999.0000 -99999.0000 -99999.0000 -99999.0000 -99999.0000 -99999.0000 -99999.0000 -99999.0000 -99999.0000 -99999.0000 -99999.0000 -99999.0000 -99999.0000 -99999.0000 -99999.0000 -99999.0000 -99999.0000 -99999.0000 -99999.0000 -99999.0000 -99999.0000 -99999.0000 -99999.0000 -99999.0000 -99999.0000 -99999.0000 -99999.0000 10.0000 11.0900 11.2101 11.3013 11.8195 13.5891 15.0103 15.5307 16.1548 16.8820 16.9713 18.7245 21.0066 19.3859 19.4299 21.2010 20.4756 21.1122 20.9368 24.0719 26.1235 21.2131 12.6355 34.8974 25.8308 29.8134 27.0693
11.0075 15.9588 20.4097 24.4869 29.6802 28.3066 23.1639 21.7218 17.2180 32.7568 13.0383 19.8074 26.1157 28.0831 27.2283 27.8389 28.7303 31.3332 33.9351 44.3599 64.5807 89.7111 95.9816 64.0498 46.1715 44.2884 48.5566 49.1485 36.5806 28.0341 25.2301 24.9088 29.9931 42.7971 41.2313 53.9723 73.9165 65.8350 41.1680 38.8550 42.8704 36.5099 32.4245 28.9490 26.7161 26.3371 29.0429 31.1767 34.1167 50.3128 70.7079 61.3275 44.5807 38.9358 37.1426 42.5704 40.3770 43.8837 44.8345 43.9320 39.8610 31.5401 32.1242 29.2132 -99999.0000 -99999.0000 -99999.0000 -99999.0000 -99999.0000 -99999.0000 -99999.0000 -99999.0000 -99999.0000 -99999.0000 -99999.0000 -99999.0000 -99999.0000 -99999.0000 -99999.0000 -99999.0000 -99999.0000 -99999.0000 -99999.0000 -99999.0000 -99999.0000 -99999.0000 -99999.0000 -99999.0000 -99999.0000 -99999.0000 -99999.0000 -99999.0000 -99999.0000 -99999.0000 10.6190 11.9922 11.6536 11.7400 12.9996 15.3163 15.8236 15.8087 16.5064 17.8789 18.4333 18.8464 19.7047 20.4865 19.6222 21.1826 23.4325 23.9875 21.4172 23.6978 22.3997 22.7901 23.3926 26.2152 27.1705 28.7367 14.9447 42.1973 28.6517 30.0144 29.2414
10.8013 15.6663 19.5339 23.2106 26.8259 31.8176 30.4630 26.7075 25.2901 18.6911 38.0752 29.9618 21.5427 20.1049 22.5399 24.4686 25.3165 25.7249 27.5510 31.0495 36.6345 58.4574 86.2370 103.6227 71.0818 48.1497 44.7668 50.2679 56.0277 41.9901 29.4822 24.9708 26.6127 40.3243 46.8854 47.8760 63.4780 75.2268 59.4835 42.2338 45.7126 40.4403 34.4108 32.0871 29.5724 28.3300 29.7489 32.1221 33.3218 44.3428 68.8940 68.2344 48.3146 41.3175 37.2891 42.9713 43.0991 43.7504 46.7216 43.9622 42.2266 33.5216 31.7027 30.7960 -99999.0000 -99999.0000 -99999.0000 -99999.0000 -99999.0000 -99999.0000 -99999.0000 -99999.0000 -99999.0000 -99999.0000 -99999.0000 -99999.0000 -99999.0000 -99999.0000 -99999.0000 -99999.0000 -99999.0000 -99999.0000 -99999.0000 -99999.0000 -99999.0000 -99999.0000 -99999.0000 -99999.0000 -99999.0000 10.0000 11.3627 11.9858 12.5368 12.9967 14.3643 17.3662 17.2926 16.6892 16.5373 18.1331 19.1470 18.9830 19.5196 21.1961 22.2420 22.0883 22.9940 23.8436 22.1253 23.3792 26.6275 27.3602 24.3772 25.9159 25.0277 24.2781 25.3293 26.5308 28.7834 33.1249 19.7083 23.1005 23.9964 31.8500 29.3602
10.4460 14.2010 17.2615 20.4198 23.3891 27.9949 30.7823 28.5183 30.5307 28.8350 20.2193 29.4969 43.9898 14.0051 16.4732 21.0759 23.5774 24.2213 24.1650 25.2667 27.7215 34.7677 53.1519 80.3496 107.3001 72.3278 46.6581 41.8388 50.6609 60.9319 54.0853 32.2922 27.0371 34.2433 49.1780 49.0682 55.2196 67.7200 72.4067 55.0397 49.2717 47.0563 35.9299 35.8409 31.9207 30.6394 30.1250 33.4090 34.0082 37.2779 64.9810 74.8139 52.2180 44.8239 38.1392 42.8135 45.8344 43.8654 47.7137 44.7647 43.3861 36.1677 32.2765 31.5590 -99999.0000 -99999.0000 -99999.0000 -99999.0000 -99999.0000 -99999.0000 -99999.0000 -99999.0000 -99999.0000 -99999.0000 -99999.0000 -99999.0000 -99999.0000 -99999.0000 -99999.0000 -99999.0000 -99999.0000 -99999.0000 -99999.0000 -99999.0000 -99999.0000 10.0000 11.2044 11.4630 11.5965 12.7826 14.6459 15.5113 16.1328 16.7822 17.8647 20.6185 23.0217 21.5003 20.1280 20.6806 21.9267 21.8714 21.9303 23.4228 24.9120 25.1208 26.1937 26.9377 25.6006 25.6346 28.1307 30.7975 28.7165 27.8198 27.8923 25.9888 27.2439 27.4225 28.2521 34.4015 26.5464 12.9585 37.4121 33.2280 29.2700
10.8454 14.5327 17.0602 20.1294 22.2432 25.7893 29.5378 27.8046 27.6830 33.5451 33.6447 28.5560 21.3840 52.2121 15.1057 22.0582 21.2940 22.7403 24.4902 24.4127 25.2258 27.2559 34.6384 54.1672 90.0047 103.1824 67.9671 43.7348 39.2905 48.9162 61.3831 60.3421 39.9430 33.1016 48.9546 52.3410 52.4970 60.5072 72.3575 65.2222 56.0332 56.7960 39.3500 37.8895 35.0605 34.5905 31.0447 33.0932 34.9879 34.4335 59.7455 75.2460 61.1749 45.7827 39.7157 41.4528 48.8913 44.2462 47.2437 46.0255 43.8139 39.9950 32.4778 31.8081 24.5514 -99999.0000 -99999.0000 -99999.0000 -99999.0000 -99999.0000 -99999.0000 -99999.0000 -99999.0000 -99999.0000 -99999.0000 -99999.0000 -99999.0000 -99999.0000 -99999.0000 -99999.0000 -99999.0000 10.0000 10.5904 10.8547 11.0356 12.2896 14.8927 15.4919 15.8954 16.4523 17.1623 17.9823 18.6421 18.9981 19.5183 21.8590 26.3797 26.9692 24.8787 23.4410 24.3355 24.2674 24.0981 25.1957 26.5228 27.5174 29.3019 30.2993 29.1715 28.6359 30.1563 33.3030 32.7295 30.0795 30.4453 28.7231 28.7775 28.7826 29.8632 32.7180 35.4178 15.4008 53.0327 31.4036 27.7775
11.1358 15.5391 18.1185 20.9501 23.1956 25.6124 28.3448 28.9623 25.2269 28.1208 35.6834 37.0213 31.8542 22.4940 54.8488 57.9948 15.6136 18.2909 22.3458 24.5731 25.6343 26.2143 28.7824 36.1326 59.6907 101.8803 92.6339 58.9658 40.3248 37.9458 45.4801 59.3753 62.5707 49.4375 50.0399 54.4573 55.8981 54.4302 66.3302 73.0323 57.8515 64.3822 50.6999 40.2068 39.4035 35.9664 32.6829 33.6957 35.2314 34.9179 50.9044 77.0744 68.0800 48.8671 42.2913 40.6459 49.9435 46.3888 46.1051 45.6707 44.8264 43.7658 33.5221 32.1483 28.9729 -99999.0000 -99999.0000 -99999.0000 -99999.0000 -99999.0000 -99999.0000 -99999.0000 -99999.0000 -99999.0000 -99999.0000 -99999.0000 10.0000 10.2172 10.1519 10.3805 10.9435 13.3996 14.8306 15.3000 15.3230 15.3055 17.1881 18.0936 18.5830 19.4139 20.0869 19.9186 20.7941 21.2753 20.7657 21.8865 25.7896 30.6686 30.1209 26.8238 26.7703 26.8250 26.3912 27.3974 28.1318 28.7486 30.9338 32.5471 32.4467 31.4152 33.5271 34.6820 37.0271 33.4100 32.2303 31.1192 30.3542 30.3418 30.2045 32.4088 39.3097 22.8099 27.0738 28.9149 23.8620
11.0593 15.8167 18.7987 21.5993 23.8934 25.8118 28.1003 30.5704 24.4600 24.6966 28.0774 35.7180 37.9059 34.7477 33.8144 30.2609 66.0619 27.8910 22.3388 22.4170 23.8963 26.0459 27.6872 30.8131 39.7625 77.7238 108.2093 74.7536 49.9438 37.9683 36.5896 44.5364 55.2307 61.1145 60.4643 58.9268 62.7800 56.0852 57.4996 71.5654 63.1604 66.4277 66.2397 45.9517 43.0706 40.0571 35.3061 34.2085 35.1951 35.7186 43.1258 72.5271 77.8765 55.1138 43.9781 40.6073 49.1108 50.1865 44.5818 44.7714 44.5559 45.6671 37.9406 31.8544 30.4025 -99999.0000 -99999.0000 -99999.0000 -99999.0000 -99999.0000 -99999.0000 -99999.0000 10.0000 10.2752 10.4310 11.5702 13.6591 14.7173 14.0285 14.2349 14.2271 16.0198 17.6137 18.4748 19.4369 18.8228 19.2718 20.3194 20.7811 21.7355 22.2753 21.9757 22.4520 23.3330 22.7167 22.2439 24.7223 29.3974 34.0469 32.0495 29.8148 29.1561 28.6118 29.0048 30.2344 30.6765 31.8236 34.6565 35.2789 33.6434 35.3165 39.1732 39.9235 37.2462 34.9460 33.1967 31.8347 32.2728 31.3514 32.3416 39.5243 29.6110 15.3416 39.5685 22.0570
11.1037 15.7383 18.5076 20.9587 23.7230 26.1222 27.9939 32.7780 27.0228 23.6107 24.3433 27.4627 34.3333 38.4056 38.8728 34.7638 25.7142 66.9253 69.3343 15.9135 19.5584 22.5971 26.2075 29.3217 33.4642 51.1432 99.6253 103.6754 63.1630 44.6559 35.6045 36.3782 43.0068 51.2432 62.0303 70.0927 66.0642 67.4468 59.0351 68.0725 65.5708 62.3328 73.6778 60.0413 49.3109 44.8971 39.1112 35.3266 36.1539 36.5386 37.9004 65.6602 85.7154 59.6163 50.5748 41.7035 47.1212 54.0998 45.4539 43.6688 44.1401 46.3799 40.6795 32.8036 30.9547 23.3212 -99999.0000 -99999.0000 -99999.0000 10.0000 10.8822 11.6877 13.3630 14.2552 14.2778 15.5498 17.6587 18.3758 17.3841 17.1165 17.0009 17.6239 19.5480 19.8940 22.7130 23.0193 21.3954 22.4142 22.8574 23.8593 24.2412 23.8681 24.0690 25.0086 24.6827 23.6992 24.8538 28.1152 33.4871 35.0435 33.7194 32.1992 31.0962 30.7042 32.1443 32.8969 33.7194 36.1573 37.6707 36.8728 36.9181 40.9848 44.0706 42.2926 38.2596 36.1157 33.6561 33.6018 32.7414 34.8258 37.2379 38.7931 16.9079 48.6550 19.4244
11.1943 15.7371 18.7985 21.0605 23.4381 26.7742 29.4736 32.3834 30.6345 21.1542 23.5228 23.5430 25.8515 31.3972 37.4070 40.9958 38.2839 35.4775 37.5636 79.1972 16.8023 26.8720 22.9319 25.1723 29.4069 37.5233 67.8559 112.0323 97.0038 59.4605 41.1826 34.8761 35.8367 41.0533 48.9852 64.4338 74.3758 81.6569 69.1239 68.2464 69.1903 56.3143 72.8236 70.0325 62.7085 50.2421 46.5988 37.4066 37.2118 38.0105 35.4222 57.2788 82.1289 75.0412 52.5746 44.2267 45.0744 54.5429 47.6890 44.0713 44.1597 46.3134 43.0627 32.5594 31.9760 28.1002 -99999.0000 -99999.0000 -99999.0000 12.2251 15.1228 16.5074 17.4020 17.0964 16.9985 18.2480 20.7757 22.4864 20.3661 19.4047 19.4741 18.8321 21.2139 20.8396 23.9118 25.8477 24.1549 24.5796 24.9716 26.0659 26.6042 25.8740 25.2250 26.4274 26.7262 25.8892 26.0049 28.0545 31.3034 35.5527 36.2020 35.3771 33.8736 32.7806 33.4267 33.7153 35.3816 37.8314 40.5229 40.4260 39.9763 41.1271 46.8768 48.4563 42.8748 39.4023 36.7285 35.0981 34.5331 36.1133 37.9105 43.2674 24.8362 56.1644 13.4427
11.3827 16.0845 19.4309 21.8999 24.2157 28.3319 31.9757 30.3129 42.5969 18.5953 20.0733 22.8690 22.4030 24.3195 28.2539 34.2854 40.3706 40.9085 38.5336 28.6891 82.9981 76.0766 19.2850 19.3366 23.0483 30.9139 47.1207 86.9262 119.1598 91.4338 56.3881 41.8813 34.8885 34.3669 38.0047 49.0215 55.9438 79.3493 91.5939 84.3372 76.0517 59.3233 65.3029 75.0613 71.7896 61.0941 52.6728 46.6129 39.7526 38.8556 37.0546 48.8784 79.8148 80.6941 61.0496 46.3981 43.6670 54.5873 50.4021 43.4730 46.2180 45.7244 44.1178 34.2799 31.3495 30.1964 -99999.0000 -99999.0000 -99999.0000 12.6618 17.1432 19.6218 21.6274 20.1733 19.1897 20.3398 22.9184 25.8195 24.3523 21.4903 21.4840 20.8484 22.4206 21.7872 23.3435 27.7883 27.0947 27.1959 27.3525 27.5101 29.0314 28.4275 26.8153 27.1835 28.1551 27.3051 27.6219 28.9872 30.6862 34.0426 36.4682 37.2616 36.5508 35.0120 35.1597 34.8493 35.4546 37.7731 41.0136 43.1323 43.5283 43.6452 47.9980 52.9730 50.8737 45.2455 41.0789 37.5619 36.0028 36.6078 39.8954 44.2416 33.3096 16.2566 58.1417
11.5224 16.2844 19.9062 22.3610 24.2460 27.6541 33.7667 31.1175 52.9258 26.5445 15.7356 22.7257 21.6358 21.6605 22.6999 24.9110 30.0717 37.4310 41.2895 38.4980 34.0355 45.5031 88.2894 15.5600 35.3798 41.9448 36.9810 55.3779 103.4207 124.3771 83.4643 54.9527 41.0979 34.1867 32.1802 39.5669 44.8375 53.6096 78.0882 92.7476 95.2470 75.2023 62.5366 72.5313 74.9635 72.1682 63.7525 58.0710 46.8538 41.1597 39.8186 42.0323 73.4029 89.2677 66.8627 50.8807 43.3365 53.0750 54.6062 44.2891 47.5639 45.8895 44.6119 35.7515 30.5330 30.3412 -99999.0000 -99999.0000 -99999.0000 -99999.0000 17.6207 21.6141 24.4685 23.8776 21.7510 21.8118 24.8244 28.5853 28.6595 23.6212 23.3253 22.4428 23.7620 24.0201 23.0613 26.4899 28.9060 30.2585 30.2028 29.8037 30.9316 30.5448 28.6875 27.8683 29.1340 28.5403 28.5503 30.4293 31.6661 33.3993 35.5503 37.4488 38.1073 36.9509 36.3470 36.3259 35.1561 36.4789 39.9499 43.2362 44.2337 45.4150 45.4409 53.1210 54.8558 50.9160 47.0914 42.3024 39.8386 36.1135 41.5961 43.1797 44.0373 19.4076 63.8077
11.6360 16.2589 20.2162 23.4553 25.0817 27.4617 34.0021 32.7943 58.1837 30.1591 15.0164 22.7840 23.7611 20.4540 20.9639 21.5115 22.6560 26.3093 33.2560 40.2757 39.8420 36.5220 27.6805 91.8547 86.3723 21.8329 45.3127 41.8697 59.0801 118.0112 121.6844 75.8816 53.0123 42.8448 33.8242 34.1447 39.3720 38.9691 54.9644 77.5874 100.7639 95.7882 69.2295 69.3847 72.7131 77.5876 73.1641 70.3419 60.1654 47.7416 44.0312 40.5443 66.2861 95.1453 72.5859 56.1204 43.9102 49.5502 59.0708 46.7671 47.0156 47.5908 43.4797 37.1795 29.5803 29.6368 22.8576 -99999.0000 -99999.0000 -99999.0000 16.4410 22.6726 26.5382 27.0069 24.4265 23.3516 25.9545 30.9736 32.0194 27.1099 24.8355 24.0224 24.8605 26.4160 23.5722 25.2534 28.7101 31.5847 33.0383 32.3595 32.8182 32.8481 31.1269 29.0817 29.4652 29.5330 29.3297 31.7071 33.1696 34.2701 35.2619 36.6873 38.3656 38.0993 37.7292 38.0382 36.5338 35.5864 38.2690 42.3572 44.9318 45.3506 46.2200 47.6542 56.7040 55.7722 52.1538 46.2712 43.7314 40.0223 41.7087 43.6961 49.7488 29.3854 19.1544
11.8899 16.1972 19.8745 23.3934 25.7927 27.7133 32.8485 34.9529 33.0403 68.5637 16.0204 22.3734 26.1452 22.8326 20.7273 21.2667 21.5249 21.5800 24.4014 31.3105 38.0630 38.8029 33.3773 22.1171 32.8073 85.6134 38.5595 42.0055 37.4759 64.2757 129.3479 121.5144 71.7146 51.3703 41.8903 34.2210 37.8627 32.7461 38.9130 53.0483 80.9510 110.4994 86.3587 72.7171 66.5060 75.1447 77.6588 84.1095 79.5230 61.6579 52.7143 42.2021 55.6205 91.3131 92.6443 61.3407 44.7100 46.2835 60.8422 49.6621 47.2759 48.6268 44.0352 37.9018 30.0597 29.7657 26.4948 -99999.0000 -99999.0000 -99999.0000 16.1609 22.7436 27.5959 30.2589 26.7815 25.0601 26.6660 32.2585 35.9506 30.0791 26.6956 25.6039 25.6743 28.6849 25.2348 25.0958 26.9757 31.0799 34.8271 35.3391 34.8833 35.1997 33.2895 31.1003 30.4771 30.5782 29.9293 32.1066 34.4581 35.5767 35.3539 36.3375 37.0858 37.5512 38.0497 39.6139 38.4032 36.5146 37.9455 41.0433 44.1583 46.9441 47.7478 48.8307 54.1358 56.6160 55.1585 51.2655 46.9854 44.2923 42.7986 43.0003 48.8192 44.9141 22.2923
12.5445 16.5017 19.3363 22.9532 25.9738 28.6127 32.8150 39.0186 34.2919 37.9907 68.3329 20.1122 26.6884 26.9039 22.6546 22.4374 22.8294 21.7449 21.9551 24.9942 30.6410 35.5404 36.9309 30.8479 23.5823 19.3145 73.6259 75.4339 22.4088 26.6684 68.1466 133.2602 126.8008 72.3636 49.7107 39.9500 39.0541 32.8889 30.1114 36.3313 50.4099 96.1427 106.7655 84.7297 68.0928 65.0296 72.4450 76.9233 91.0908 87.3247 71.7617 53.5488 52.5933 84.6911 98.9032 73.4602 46.7014 44.3750 59.9148 54.6750 47.7175 49.5897 43.7720 39.0893 30.7118 28.9351 27.9781 -99999.0000 -99999.0000 -99999.0000 15.0482 22.4685 28.4389 32.5307 29.9162 26.8624 27.5929 33.2531 37.7783 34.5584 29.3228 27.4641 26.3380 29.7502 27.6304 25.5984 26.9236 30.0419 35.1260 36.9499 36.3098 37.1102 36.4250 32.8833 31.7886 31.2930 30.8123 32.2042 35.3853 37.5907 37.4279 36.5523 37.6049 36.8131 36.7422 39.6186 40.2624 38.3221 38.0530 39.7569 42.8602 45.9422 48.9767 50.5182 55.7109 57.1748 56.3043 53.8509 50.4167 48.3745 46.2682 46.8203 48.5950 48.7136 41.9207
13.5307 17.4781 19.2309 22.3294 26.3985 29.8757 33.5351 38.9426 38.7123 45.7285 68.3854 41.4616 29.5427 28.7696 27.7514 25.8452 23.4595 20.7163 19.8011 22.1733 26.2976 30.6105 35.5472 36.1508 29.2615 22.4047 17.0837 28.1000 80.2777 14.9672 30.9669 76.0873 130.2893 126.8170 67.2217 47.1714 41.5002 36.1356 28.7893 28.1622 33.2221 53.9478 106.6590 105.1639 81.6057 60.6967 61.6917 66.4697 78.8661 96.8381 98.0783 79.8396 60.1049 80.8214 104.4581 83.5427 53.1817 43.7262 56.2556 61.2835 49.2210 49.2990 44.7469 39.1342 32.0712 27.9331 27.9000 -99999.0000 -99999.0000 -99999.0000 -99999.0000 20.8480 28.7216 33.6075 33.0170 29.5082 28.8183 34.6158 39.6342 38.5798 30.6160 29.3799 27.8566 30.0998 30.6461 27.2582 27.0325 29.0257 35.0910 38.7452 37.6961 38.1902 38.6819 35.3772 33.0223 32.9901 31.6051 31.7250 34.9451 38.8922 39.2651 38.4409 38.8658 38.0742 36.3957 38.0905 40.5571 40.5156 39.4589 39.7234 41.8099 44.2423 48.5804 52.7685 56.5450 58.9160 57.1424 56.3552 54.2118 49.4527 48.0685 48.0723 52.0203 52.3613 50.6952
14.3901 17.7460 18.2536 19.2884 20.7758 21.5159 22.7155 30.4936 39.8419 39.8915 64.2584 57.9204 32.5160 27.1508 23.7053 24.9392 30.6075 23.9009 25.3797 22.9457 25.7809 26.0021 31.3747 35.5443 33.4397 27.0989 21.7160 19.2207 17.5925 82.5309 78.0182 23.3169 82.5282 136.6221 122.3501 65.2170 43.0414 39.7667 29.3698 27.3317 27.6290 33.1846 63.2032 113.9024 110.2538 75.2540 59.9889 53.7220 59.1354 74.6016 97.5720 105.9832 88.7535 94.0629 106.4408 90.5145 67.7826 44.4711 52.8265 66.9933 51.5113 48.8724 45.3811 40.2923 33.4717 27.1691 27.0633 20.8663 -99999.0000 -99999.0000 -99999.0000 17.9209 27.8353 34.7511 35.2427 31.8344 29.5520 34.9117 42.1300 41.4378 34.3522 30.6722 29.2683 30.0865 32.3318 29.9197 27.4881 29.2940 34.8513 38.8838 39.9434 39.9533 39.8219 37.6934 34.2392 33.7055 33.1791 31.8475 35.0259 38.9368 42.0470 40.0659 40.2059 39.4835 38.1443 37.8702 39.6970 41.1927 40.5581 40.6342 42.0610 44.8666 48.3021 51.7546 56.5830 60.3153 58.3500 57.3891 56.6851 55.1367 48.5320 46.6140 54.6009 58.7080 59.2477
15.8579 20.5385 20.2083 19.6062 21.2746 20.9724 20.7679 24.0833 31.9120 40.9291 49.9601 69.9451 58.6130 37.7435 28.8486 30.1639 29.2514 26.8903 25.0694 26.4386 26.7675 26.8039 28.5476 33.3602 33.6076 30.2889 25.9312 22.3210 19.5544 15.9171 35.3368 88.7509 26.1839 82.3186 142.3548 112.8568 58.3276 44.9044 29.1622 27.0758 24.4088 25.6591 35.3420 68.7258 119.5709 118.7978 81.0983 53.4937 47.6041 50.6566 69.7815 95.0863 104.9343 115.3337 111.1821 100.9198 90.6059 52.7464 48.4386 69.2603 55.3338 48.6731 46.7471 40.7094 35.2504 27.2466 27.1140 24.1416 -99999.0000 -99999.0000 -99999.0000 16.6648 26.1818 34.0743 38.1735 33.3293 30.8032 34.9733 43.8129 45.6419 37.0790 31.7396 30.8604 30.7579 33.7097 32.4066 28.6028 28.7379 33.6151 39.2633 41.4477 42.0129 42.5549 39.4437 36.2396 34.4039 35.1332 33.1673 35.0938 38.5088 42.0823 42.6218 42.2814 40.7815 39.6718 38.9419 39.4147 40.7864 41.2883 42.7906 42.9502 44.3815 49.4590 51.0577 55.2724 60.6814 61.7525 57.8528 56.2961 57.0276 53.9937 47.7870 51.0544 57.9772 72.2306
17.3901 22.7870 22.9467 20.3320 21.5458 23.2256 21.8520 23.2830 28.9550 37.4910 40.2043 63.5217 68.6495 48.3313 35.5478 32.0072 33.1804 30.3847 27.5622 28.0171 29.3430 28.0435 28.2927 31.1929 33.0540 31.3086 28.4477 26.1084 23.1510 20.4056 20.3757 19.8522 92.0416 102.9192 75.2066 144.5445 102.5097 62.4495 32.5238 27.4524 25.1208 22.3118 23.9239 32.3519 66.7717 121.1057 130.6415 93.9132 60.4110 46.7921 50.4854 68.2958 89.3161 114.4514 127.8722 109.6472 107.9378 81.9422 49.9429 66.5107 61.2133 49.5638 48.1019 41.2999 36.3992 28.9196 26.5264 25.5929 -99999.0000 -99999.0000 -99999.0000 -99999.0000 24.2790 33.5344 38.8507 35.4483 31.8119 34.5373 44.1490 48.5512 42.7848 34.5518 32.5651 31.6373 34.7424 34.1163 31.2478 29.7198 32.9621 38.5139 42.1116 43.1760 44.4210 43.7740 38.5261 36.0457 36.3512 35.5870 35.0505 37.1323 40.2782 42.5252 43.2430 42.9890 41.5639 40.6947 40.8926 41.4807 41.3681 43.3086 43.4489 44.7641 49.1062 49.6980 51.0631 56.7475 59.4418 56.5790 54.1930 57.8782 53.0607 47.2631 50.9674 62.2072 78.4898
18.7109 25.0502 25.9768 22.0752 21.6082 24.0083 24.0310 24.5410 29.3949 34.2645 33.6541 59.1318 66.6937 59.9616 46.6163 37.3583 35.6997 34.7040 30.6566 29.8973 32.5136 29.9315 28.4397 30.1981 32.1132 30.8735 28.8929 27.5781 26.1077 23.9556 22.0910 20.8077 18.1459 41.5754 148.5995 67.3168 118.3085 92.5586 48.3048 27.2419 27.2017 22.6980 20.5573 22.7304 26.7556 45.6938 103.6114 133.2456 108.7789 73.0258 57.1360 57.6525 74.0378 93.1861 123.4989 131.5538 128.0769 125.6919 69.6915 67.0970 67.7098 52.1856 50.2591 41.7812 37.7828 31.0958 26.3562 26.0040 -99999.0000 -99999.0000 -99999.0000 -99999.0000 21.5933 32.9967 39.2708 36.1140 32.5508 34.2450 44.2841 48.8743 47.5582 38.0513 34.9712 33.8894 35.5433 36.0124 34.3840 31.1897 33.1530 39.0802 43.6056 44.8359 45.7164 46.5967 42.7880 38.4460 37.5674 37.0011 37.0687 37.9093 39.7985 42.1488 43.5360 44.1251 43.7194 42.1944 41.6572 43.2314 42.9487 44.0798 44.4530 46.1578 50.7910 54.8924 55.7572 45.5058 59.2636 61.9244 61.9484 53.3871 55.5684 46.0061 50.1761 65.0684 81.2373
19.5364 26.4462 29.3821 24.1788 22.6988 25.0327 26.5553 27.1433 30.2884 34.1405 26.3157 41.9344 68.2033 67.9884 55.6911 44.7961 39.6904 39.0333 34.6379 31.9233 34.2177 33.0564 29.3681 30.4473 31.9977 30.8169 28.5911 28.2923 28.2511 26.2731 24.5795 22.7989 21.6918 21.0684 21.0137 160.5161 198.0090 63.5102 71.6278 40.2640 28.7074 24.8274 21.4220 20.7119 20.3311 25.5895 48.0743 97.0801 123.3593 112.5411 87.7774 70.4531 74.3888 91.5767 120.9076 142.2345 151.7431 175.7126 141.3688 93.7182 79.9851 56.4299 51.2438 44.3721 38.3345 33.4791 26.7471 26.2283 19.3597 -99999.0000 -99999.0000 -99999.0000 20.7734 31.9966 39.5521 37.8499 33.1464 34.1158 43.3002 49.0062 49.6160 44.4872 38.6278 37.2080 37.0251 35.7039 36.3183 35.4777 33.8366 40.0336 45.5114 47.8411 48.7908 48.7652 47.4037 42.2431 39.9395 38.6725 38.4613 38.9964 40.4428 42.0607 43.9552 44.9971 45.5234 44.0955 42.7434 44.0114 45.2524 45.8274 46.5104 48.5345 52.0670 60.1154 62.7588 54.6768 58.7895 59.6990 66.6042 64.4290 54.2453 53.5137 51.5073 69.4235 81.3346
19.9860 27.2393 31.0769 27.6719 24.7940 25.6695 27.8506 28.5483 29.0136 29.4474 29.5252 37.8561 58.0806 64.8046 62.2159 52.0013 44.5699 44.1150 40.4069 35.5282 36.3962 35.8055 31.5257 30.9115 32.5408 31.4914 28.4190 26.6886 28.1600 27.3763 25.1912 23.5051 22.3631 22.9838 21.5818 17.8402 34.7883 212.6385 51.5588 52.6467 31.1812 27.4260 23.0895 22.6215 20.5823 21.2625 27.6856 49.9126 88.7755 117.7243 114.4017 106.7209 98.9761 98.4614 117.1983 148.5892 163.8694 190.1249 209.4786 184.3109 139.6192 92.4601 67.0870 45.9831 41.8382 35.3657 28.1330 26.5584 23.8119 -99999.0000 -99999.0000 -99999.0000 20.2615 31.6955 40.4331 39.6740 34.6007 35.2057 41.2878 48.5604 50.8584 49.1813 44.2824 42.0051 40.9002 37.6641 37.6784 35.4623 34.7350 35.3583 40.4270 49.4260 51.4619 51.6613 50.1013 47.1523 43.0988 41.1843 40.1102 40.2747 41.1068 42.6422 44.2732 45.4742 47.1618 47.2343 45.4805 48.2963 47.5350 51.4631 54.7275 53.9818 56.1842 69.0273 73.8936 73.3107 63.7258 64.7795 64.2511 68.1289 70.8882 55.7676 56.5962 70.1952 89.3815
20.2388 27.5004 31.3276 30.6364 28.0570 21.7556 29.5002 31.2533 36.9821 43.1313 44.2041 51.8944 46.3957 56.6536 62.8319 59.8163 49.7345 48.4265 46.9252 39.7716 38.1908 38.7631 34.9187 32.5021 34.1577 33.1065 29.2480 27.4594 28.5450 28.5983 26.2768 23.8887 22.2381 22.2966 22.6826 21.5590 19.7507 20.7190 217.3799 225.9619 25.4451 26.8193 29.3851 24.4214 23.3746 22.2214 22.3833 30.8413 53.5039 83.1224 104.3005 102.7174 110.0881 109.0505 118.6875 128.6544 159.4364 190.3368 226.9525 245.3965 232.9253 206.5391 164.2514 102.8128 54.6685 43.1537 32.2845 28.5310 25.5980 -99999.0000 -99999.0000 -99999.0000 -99999.0000 28.8981 42.0868 42.1425 39.7764 38.4203 40.8742 46.3174 48.9027 50.9994 48.3771 45.3194 43.8916 43.6455 39.8638 39.5898 38.1276 37.9934 38.4901 42.9863 52.8094 55.4572 53.7286 50.4330 47.3301 44.1357 42.5040 41.8038 42.4655 43.4006 44.9959 47.8726 51.9406 56.6186 55.9355 57.3523 57.0750 55.0706 61.2547 62.8951 62.3078 70.9213 73.1430 94.8997 105.0819 119.1184 102.8508 88.1502 88.0456 83.4166 67.0452 69.8512 102.7309
20.6900 28.6796 32.3139 33.3130 31.4775 37.7031 39.8622 29.1780 27.5212 26.6276 39.4539 55.1314 65.3574 66.9766 78.6292 72.2115 60.4242 54.3543 55.4296 47.9129 40.6990 40.9688 38.5763 34.8976 35.7759 36.1398 31.7448 28.4420 29.6343 30.5337 27.8195 25.3919 22.8349 21.9752 21.9783 21.7216 21.9984 20.9050 17.4582 14.9824 228.2940 16.8927 24.5830 32.8442 27.7200 25.2902 24.3516 24.3645 37.8555 59.8921 79.1497 102.0573 99.4724 116.5044 130.7311 136.5503 152.2756 160.6687 170.1915 218.5604 261.0031 260.5590 282.0341 269.1298 195.4175 100.4564 57.5403 37.6375 29.4364 -99999.0000 -99999.0000 -99999.0000 -99999.0000 16.3591 36.6255 47.0784 42.9943 42.4270 42.9960 46.2787 51.4623 49.2413 49.8829 50.9759 46.0229 45.3197 46.6269 47.1827 45.2697 45.7529 46.4004 42.0963 45.7392 56.4974 56.2456 54.2961 51.0744 48.2270 45.6934 45.0478 46.0244 47.6807 48.3198 51.2674 54.0930 61.3661 67.1945 68.9008 69.7316 68.3624 69.0620 74.0529 77.6053 77.7685 92.6588 94.3371 87.8941 72.9311 108.6848 99.7731 75.3960 89.6102 80.2674 78.6960 118.8558
20.6701 28.2878 32.6254 33.7940 30.6642 25.6011 38.2745 47.2245 42.5538 53.2673 81.6017 108.0176 127.3091 129.1772 125.9952 135.0086 136.2814 128.2826 115.2399 90.9915 56.1148 46.0007 42.6493 37.7451 36.5524 38.8355 35.9560 31.1799 31.0177 32.2150 30.3668 27.6507 24.8518 23.2717 22.8329 21.9150 21.8412 21.8239 21.8618 18.5058 16.1501 230.7136 27.6189 20.6629 30.3243 51.3940 50.4182 34.2294 64.1225 77.7698 94.7007 96.6387 114.9053 132.3739 134.1116 147.3544 148.8094 143.7020 149.0674 163.3544 183.4990 231.9185 216.0753 243.4700 308.7060 275.8939 237.1265 169.4524 84.0617 48.8287 -99999.0000 -99999.0000 -99999.0000 12.9434 23.7555 39.3519 49.0378 44.0102 44.0849 45.2266 50.3840 54.1614 51.9765 51.6055 52.6212 52.5640 48.4975 50.9742 54.1166 53.6141 53.3272 52.8120 45.3543 52.6603 56.5959 56.8404 55.0294 53.1585 53.2704 50.4024 50.4835 51.8129 54.4713 55.1744 57.4615 61.2389 67.7457 74.0130 80.1471 82.8420 83.6793 90.8098 97.0757 110.4929 97.6367 93.7862 108.4061 112.5383 109.5892 117.5392 106.5415 84.7479 90.5848 85.7406 139.8790
17.5645 26.5094 32.4183 35.0855 39.6659 47.4107 58.9081 73.3234 101.8579 116.4074 106.5473 94.1376 85.3055 94.1052 107.9088 122.2423 132.7781 154.1537 166.8424 157.6081 150.5964 108.2227 61.1501 44.2366 37.9645 39.5758 40.5811 35.7146 34.1232 35.3353 33.8549 30.9848 28.1470 25.8966 24.8818 23.4371 23.0823 23.7159 25.1694 27.5073 28.6668 35.1292 16.9831 83.3542 72.5228 104.9218 132.2025 119.1544 117.6996 124.7769 118.4579 137.3065 143.2611 138.4444 152.5707 150.7128 143.1739 130.6294 135.9100 140.6067 149.7112 164.6357 203.8752 218.7987 235.8414 266.6557 222.3020 276.0434 222.1120 139.4277 -99999.0000 -99999.0000 -99999.0000 11.4853 19.5494 29.4384 39.0354 51.6736 48.9977 49.4845 51.9945 55.6738 57.0619 55.7539 54.5456 54.4993 58.1595 58.0966 58.6233 62.1704 64.4512 60.6873 58.0667 54.1595 55.1161 58.2537 60.2818 56.9800 57.4539 57.5759 57.0717 56.8225 59.9737 65.9477 67.9646 68.8006 71.3406 75.5026 82.1028 89.1832 95.4408 94.7832 100.9763 105.5504 111.4483 112.8431 110.7504 123.6341 123.8446 133.0035 132.0647 124.2056 109.0375 107.5504 170.7437
17.1439 30.7987 44.0717 56.5124 66.3606 75.1090 79.8510 80.9065 68.4111 38.3765 29.7166 29.1015 27.0774 25.6162 26.7983 34.4755 51.2367 64.8774 90.0049 139.9559 176.6719 213.2556 219.2715 159.5532 62.9831 43.1758 41.4510 38.4769 35.6819 37.0444 37.0317 35.1287 32.2417 29.5061 27.7752 25.5506 23.9401 23.8016 23.9298 29.6780 64.3898 114.5912 121.3203 99.5386 111.6296 116.1866 124.5320 163.8781 169.2085 150.6988 172.4573 169.5843 167.5831 169.2179 154.2310 145.7770 135.1831 127.1738 130.9033 128.9590 129.7773 140.3444 151.6389 180.9403 206.8137 263.3859 294.6254 263.0239 290.5754 239.1560 -99999.0000 -99999.0000 -99999.0000 -99999.0000 15.7345 25.9097 33.1835 41.7153 50.8196 52.3891 55.0201 58.5093 62.3941 63.5262 61.4044 60.8472 56.9106 60.5929 63.7025 66.4441 70.3889 75.9944 69.0069 64.5387 64.8656 64.3798 63.0179 64.6191 63.6742 64.0735 66.8973 70.0184 72.6732 72.0009 73.6977 73.3518 75.2956 77.7297 83.2271 90.5124 96.0067 109.4102 111.9199 113.4694 112.5415 109.2016 108.5808 101.2220 121.3162 123.4837 139.8295 141.8001 137.2885 131.6781 207.5093
17.2862 27.4644 35.1587 41.5541 43.0647 41.3523 34.7988 30.3109 27.5542 26.4366 25.8026 25.7176 25.4562 24.6773 25.1374 26.1417 27.5097 27.6823 28.7811 29.9407 31.2934 33.0069 92.7303 195.4280 240.6775 208.1922 153.2077 64.7721 39.9495 36.2031 37.3445 36.4007 35.0277 33.1239 30.8545 28.4727 26.5619 25.3675 47.8811 116.7932 163.0232 157.6666 151.0812 150.4827 155.5982 82.1759 137.0696 138.5069 157.5050 188.1077 173.6041 164.2388 160.6875 144.4915 141.9662 135.6773 129.6759 119.6108 115.1808 116.0099 113.8761 113.6275 123.2457 131.3817 147.6128 168.4940 220.9677 274.4775 304.0147 340.7349 242.0417 -99999.0000 -99999.0000 -99999.0000 11.4578 20.8916 28.6286 35.3666 43.5227 50.7604 54.2127 58.2478 62.3814 65.0489 67.5895 64.3672 66.0651 66.0417 68.7887 71.6389 73.9658 79.9195 85.8082 76.6524 70.1845 70.3742 71.6680 74.1702 77.4071 76.7430 78.5174 76.7567 75.1346 78.0707 81.5496 84.9267 89.6929 95.0338 101.7843 104.1409 112.1117 105.7591 104.8681 100.7104 94.5860 94.8010 93.9964 99.3571 93.9714 109.9951 116.1840 132.9266 134.9908 126.2697 236.0582
17.3694 24.3857 27.5089 29.0196 29.9760 29.2149 28.1165 26.3332 24.9456 23.9703 23.4187 23.8060 24.1804 24.1629 23.9454 25.1115 26.4432 27.3836 28.1547 29.1277 31.2166 32.2435 33.5620 34.5951 45.2064 145.3515 224.2714 257.1400 263.6597 220.2117 161.8938 128.7488 79.7851 80.1668 95.3087 120.3042 148.8881 178.7850 207.2484 195.4749 175.5480 164.8388 159.4288 157.5274 160.0178 188.5045 129.8412 115.1330 151.9772 131.2676 135.7999 136.6860 116.3488 125.2625 122.6256 116.0443 108.3652 101.9360 99.5513 94.2617 92.8229 92.7348 91.2591 88.2991 91.3903 99.9510 116.4475 153.8309 212.8334 258.2160 364.6985 -99999.0000 -99999.0000 -99999.0000 10.3778 16.6656 24.0977 30.7065 37.6325 45.1073 51.5273 57.2702 62.6629 68.3921 70.2002 72.7449 68.2259 73.6165 73.8148 76.9719 82.2684 82.0588 88.9002 93.0930 85.8204 83.1205 85.0159 88.0984 93.2078 95.2570 95.0516 94.7431 91.7706 99.2425 107.1836 109.2430 107.8031 107.8077 103.0872 102.0794 97.2741 86.7018 88.6626 75.8261 73.2823 71.3127 77.4008 80.4329 98.5583 105.3631 117.8521 124.9791 134.8850 139.1918 264.2828
17.5361 23.3934 24.9515 25.7906 26.9809 26.8707 25.1839 23.6093 22.4517 21.4847 21.7390 22.0330 22.7693 23.0001 23.1800 23.7014 25.1461 26.2662 27.2040 28.3221 30.0025 30.8870 32.1406 32.6277 33.2270 34.0550 33.2961 33.5512 34.5729 159.5954 232.3842 255.0033 262.8742 236.1375 214.0792 203.0875 188.3976 183.8701 166.9233 152.9596 143.3882 133.1499 134.9118 141.3364 133.3500 145.2977 169.3816 162.1832 84.4106 84.6975 101.4283 80.1089 97.3293 90.3176 84.8129 86.2286 82.2811 81.3385 69.2528 71.1975 72.6779 75.0642 68.5371 65.8933 63.6042 58.3781 53.6205 60.5985 86.4870 136.8578 261.7653 -99999.0000 -99999.0000 -99999.0000 10.1215 13.6732 18.7622 25.9708 31.6734 38.1616 44.7049 51.3118 58.8705 64.8469 71.2757 75.0166 75.3959 72.1882 76.1416 78.3778 82.5019 91.5431 98.3837 102.3869 108.5031 105.5353 104.1119 104.6635 101.8235 104.9515 103.8380 104.7869 104.7613 100.7285 95.8958 94.4546 92.7210 84.8145 89.3020 89.0212 76.1192 82.5868 72.5297 80.8308 79.0831 80.5664 73.1369 68.3379 63.0470 75.1727 90.3071 106.4076 109.9068 119.4558 288.8258
16.7114 21.4315 22.4145 22.5423 24.0524 24.9906 23.1417 21.3895 20.0405 19.6655 20.0972 20.2250 21.2981 22.2052 22.3351 22.6405 24.0847 25.6493 26.0226 27.3517 29.3109 30.1883 30.9376 31.2508 31.9355 31.9004 32.1988 33.0073 33.6324 33.6657 32.4930 32.6013 84.5004 151.9333 172.7820 171.7103 163.4386 150.0044 130.4126 119.0134 112.5177 107.5000 103.5964 102.9472 108.5240 105.1575 103.2796 95.8403 103.7553 88.2608 18.5366 56.5237 47.9909 56.0016 57.4374 53.5619 58.4566 57.5040 56.0041 55.3410 58.2893 58.1765 53.5926 48.4988 38.4608 33.3585 32.6045 37.9271 40.9042 52.2841 67.9609 -99999.0000 -99999.0000 -99999.0000 -99999.0000 11.3955 17.7232 22.0040 26.1958 31.0600 38.0364 47.8592 53.9165 60.4321 67.2914 70.4757 73.7514 74.0617 74.0019 75.7369 77.7345 82.2610 90.8800 100.9718 108.3028 114.0220 114.2707 108.2823 107.0067 102.8659 102.9544 102.3739 99.0683 86.4344 80.0768 78.3491 78.4156 79.5171 72.8435 55.8371 63.1380 58.1480 59.8707 54.3352 59.7432 65.0638 77.9065 67.9750 43.7368 37.1245 44.6272 62.0170 85.2881 98.7689 302.0107
15.1681 19.2044 19.8244 19.9663 21.4056 22.5792 21.3341 18.8837 17.8609 17.5641 17.8533 18.5024 19.6504 20.8424 21.1537 22.0140 23.0909 23.9243 24.6503 26.4371 27.8106 28.8453 28.8886 29.1258 29.3172 29.6449 30.0349 31.3975 32.6179 31.8623 31.5365 31.4880 30.6948 35.8798 55.0280 69.1637 70.1244 72.9105 78.5618 78.3280 73.8162 68.1143 64.6437 65.3824 66.8962 66.1062 62.6729 61.7930 54.0336 53.5059 52.1289 15.7569 37.4869 32.3944 33.2001 40.8514 40.7471 39.5434 41.4198 41.3772 40.8906 39.4810 32.6430 28.9299 26.8641 26.0475 26.1161 27.4723 26.5188 25.9946 24.3826 31.3286 -99999.0000 -99999.0000 -99999.0000 11.5093 14.9600 17.2614 20.4373 24.6720 40.1329 32.8767 40.9050 46.4518 51.0220 57.4439 63.7482 65.3364 66.5379 64.9249 65.7695 67.6665 72.0395 80.9665 89.0712 91.7199 93.5859 95.2858 93.4785 87.4641 82.2557 82.6268 82.8424 88.1185 88.1530 88.1386 77.6913 74.2758 61.6363 59.9185 45.6215 44.2975 32.7251 37.4349 45.4708 55.5077 41.1109 76.6769 99.8491 116.7370 37.2444 39.2244 63.7154 163.0464 287.8222
13.4231 16.5290 17.2701 17.6311 18.7352 20.1674 18.7525 16.5391 15.3404 15.4041 16.3464 17.4102 18.7146 19.9494 20.8454 21.4945 22.5989 23.6770 25.2474 26.4945 27.9166 27.6912 27.5822 27.6712 27.8723 28.4399 29.0459 29.9303 29.6034 28.8542 28.4581 27.0653 26.1480 25.6291 25.3603 26.8271 28.6467 29.4960 29.9024 31.1214 30.6402 31.6228 37.1491 38.1500 38.1741 42.1475 40.7039 39.3285 40.2740 37.2520 32.8116 35.1074 21.6167 22.8905 27.7286 26.0700 29.3575 29.4499 28.4369 27.4640 27.7804 27.6910 25.7592 23.6895 22.6709 22.4556 21.6200 22.3123 22.3488 22.6132 23.0065 24.3566 -99999.0000 -99999.0000 -99999.0000 11.3841 17.1387 22.0234 28.2406 33.7798 18.5768 30.3166 26.4405 28.1770 33.6181 37.5662 40.3676 48.2323 50.5957 55.3735 59.2088 62.4578 64.7761 65.2560 69.0505 75.9558 92.9654 89.1537 88.3692 92.5941 95.8821 98.0044 97.3824 115.5851 94.5251 85.9955 78.0701 79.0821 70.6537 57.2968 41.7447 40.6013 45.6358 88.3667 60.0861 55.9268 48.9783 39.2614 41.0277 18.2723 10.6080 10.6675 37.8742 134.2302 302.3058
11.2605 13.7173 14.8211 15.6546 16.6269 17.5193 16.5662 15.0411 14.4148 15.0303 16.1949 17.7249 19.7857 21.1439 21.3586 22.0632 23.7502 25.8444 26.8972 27.8613 28.0120 27.8909 27.3147 27.1059 27.9488 28.2436 28.3394 28.0697 27.0113 26.3272 24.2965 22.6346 21.9543 21.9188 21.9951 22.8048 23.3143 23.9354 25.7974 24.6560 24.2426 22.6490 23.4176 24.4619 26.1807 25.1468 21.3042 19.0990 18.5223 19.2470 19.7340 23.5912 24.1149 23.8990 13.7189 27.1597 21.1654 21.5936 19.2805 19.9523 21.8745 21.7655 20.8861 20.2302 19.5679 18.9667 18.4925 19.0404 19.0334 18.2444 19.1950 18.7332 -99999.0000 -99999.0000 -99999.0000 10.7874 15.7521 20.1045 21.4595 20.7302 22.0106 24.7761 28.6121 30.0526 29.6943 32.2808 36.0977 35.0002 38.4329 40.6782 42.5173 41.9911 41.9081 45.4616 45.1301 52.2144 55.6272 72.9710 88.3882 94.7369 92.5449 90.5557 93.3515 52.7851 77.4190 95.0255 48.9147 48.6802 65.7852 72.0434 179.5034 173.9331 163.1068 124.1404 135.5759 120.4938 76.5300 10.0000 22.9708 21.6857 17.3267 13.9325 24.0410 121.0540 309.7673
10.1194 12.7165 14.3905 15.7793 17.2460 17.8530 16.9153 17.1287 19.1181 20.4466 21.7117 23.3802 24.7378 25.4769 25.6998 26.0250 27.7903 29.0777 28.8127 28.4697 28.5050 27.7581 26.9420 26.7902 26.8552 26.1790 24.8676 23.0616 21.0709 19.0818 17.5441 16.7452 16.5831 16.6676 16.7424 16.7255 16.7154 16.9384 16.3819 16.2020 16.4642 16.8751 17.7898 18.0744 16.9990 15.7991 15.1758 14.9947 15.7646 15.7631 15.5158 15.8300 16.2071 17.3945 19.8840 14.3639 18.6016 16.3114 15.9814 18.8020 16.7808 16.6458 17.1842 16.2309 15.8209 15.3512 15.2380 15.6224 15.3950 15.3230 15.2926 15.3285 -99999.0000 -99999.0000 -99999.0000 -99999.0000 12.7482 15.0364 14.4643 14.6475 14.9960 15.3843 15.2683 15.7099 16.2885 17.6219 20.3135 22.4669 23.6019 25.9521 25.7072 30.3101 34.7114 34.8044 36.9014 32.9894 27.6640 24.7327 28.9254 31.2013 45.8553 40.6018 46.2124 73.0411 27.6772 40.6828 93.5297 166.7426 177.7211 184.7364 26.2752 110.0779 122.0278 146.8349 149.8936 165.7979 182.4174 10.1248 113.5408 89.3026 38.9856 19.5771 22.1957 65.1072 322.0039
