NCOLS 125
NROWS 94
XLLCORNER 4478435
YLLCORNER 5719015
CELLSIZE 10.000000
NODATA_VALUE -99999.0000
14.1704 19.3977 25.0402 41.7793 62.1359 77.6629 87.2110 95.4168 103.5600 111.8607 119.8094 129.0369 130.3784 113.7715 95.2323 73.0152 49.4786 41.2696 39.1828 37.9196 37.6941 37.4955 34.2318 34.8223 29.6583 30.3039 180.9724 221.7172 234.6933 260.0777 262.3286 208.3920 158.5499 112.6915 213.1898 190.6927 16.7602 17.7649 18.0318 22.0992 23.4446 22.2737 21.0277 19.4700 18.8344 18.3409 17.9358 20.6241 41.5693 188.6903 239.7030 60.6897 31.4156 30.9451 35.1301 33.0447 34.3795 33.0482 37.5091 33.9257 33.4932 31.8026 32.2208 31.6744 34.4352 33.5782 29.7417 32.5706 34.8147 36.1314 40.4730 45.9702 56.1883 73.5723 117.9022 159.5772 144.5725 91.0944 34.6484 24.4431 24.6407 51.3317 103.6071 130.4182 153.5256 132.4167 82.7461 55.8721 36.4016 33.1605 34.8259 34.4025 39.8282 48.7303 66.9028 58.0817 60.8910 54.3944 47.3774 38.5385 27.4037 24.4693 25.8107 27.9993 31.8341 33.7534 34.9238 35.5087 41.0741 55.7577 156.9710 208.2602 94.4521 65.5858 49.7984 39.2363 28.0922 23.4908 24.0866 23.0890 21.6373 21.0588 20.4177 18.9276 15.0607
14.5140 18.9732 21.3682 23.8457 26.3641 28.6190 30.1023 30.4995 29.1112 26.9759 25.9226 25.4922 52.2927 95.1377 127.8625 138.0825 148.4997 157.3202 152.7324 85.5888 40.8941 36.9992 38.1591 40.4674 243.7078 246.4368 182.2794 141.7396 130.7040 30.1301 14.4031 28.9674 73.5851 98.8323 126.3509 264.3794 15.8986 14.0013 18.7643 20.9425 20.7231 19.1782 17.9657 16.9576 16.4463 16.9613 18.6388 29.2853 92.8341 263.6136 114.3077 33.2607 30.7557 30.8078 33.8509 32.0826 32.8431 31.8079 35.9128 32.1014 32.4912 30.9814 31.8860 32.5780 34.3205 34.7956 36.1636 39.6484 44.7539 50.6210 60.2190 73.1214 110.4256 142.8841 152.8843 115.9436 55.0534 29.9839 21.2493 20.7116 23.0491 44.1137 122.0102 151.7666 155.2528 91.2835 48.5865 39.3286 34.0155 32.5077 33.5763 33.7537 40.0982 51.5146 71.3041 61.5125 55.2212 48.1800 33.6147 23.1666 20.4550 22.9651 25.9189 27.6604 30.3506 31.4948 32.8646 35.5179 38.3200 40.9777 42.2221 44.0132 46.6360 111.6023 135.3923 43.1650 29.5122 26.6270 27.2210 24.1208 23.2393 24.0878 22.2286 20.7912 16.3929
14.3653 18.4247 20.6477 22.6749 24.9532 26.6208 27.0352 25.1543 24.2609 24.1064 22.6732 21.0999 19.5341 18.8507 31.7725 62.8932 64.5583 13.3197 53.8739 140.2511 224.4460 230.0057 234.1620 238.8872 31.8380 26.9567 24.4811 25.0490 29.6855 32.8242 32.8470 52.4364 127.0409 208.4878 260.4258 19.0258 16.1924 14.2609 17.6542 18.7793 17.3717 16.5758 15.8300 15.6502 15.5395 17.4351 27.7957 65.8731 242.4940 189.0678 39.3121 32.1470 29.9937 30.5511 32.8703 31.4563 31.4316 30.4871 33.9746 30.9757 31.6436 31.3104 32.1220 33.2465 36.4542 43.2872 46.4743 54.9218 64.9027 86.9208 106.1160 137.6508 145.4909 126.7102 72.9442 37.6706 25.4396 22.0836 20.0375 21.2150 23.7441 46.7730 142.9348 167.1358 125.1327 61.3304 36.9922 36.0786 32.8478 32.2069 33.6680 34.5784 41.2951 58.7411 75.6630 58.1794 50.0224 32.6488 17.7683 16.7106 17.6497 21.5799 25.9090 29.6615 30.6814 32.1696 31.6549 34.6957 38.8996 41.2275 39.9924 40.9264 40.8990 43.2991 41.4092 45.4373 72.1768 97.0993 30.1759 26.6131 26.6982 26.4070 23.7462 22.2390 17.2287
13.2649 16.5837 18.7648 20.5843 22.9732 23.3574 22.9023 22.9320 22.4492 21.4987 20.1286 18.3098 16.7370 16.7974 17.9597 15.9331 12.8452 139.3080 159.9897 179.6353 40.5588 32.4222 33.8360 36.3734 34.8105 32.0151 33.0367 34.2755 34.9053 33.1456 33.5282 76.4117 186.3260 229.8575 117.9123 16.8505 15.1690 14.0926 16.2354 16.0004 14.8474 15.0028 15.0406 15.2262 16.3722 44.3869 106.3685 234.3224 208.2844 51.9779 38.2754 32.4644 29.4179 30.1765 32.2603 30.6393 30.3595 29.6699 33.0151 30.0697 31.4393 32.5395 31.8809 37.2295 47.5895 58.5895 68.9346 80.4560 113.5011 133.6825 131.3159 121.7796 74.6576 49.8122 30.6428 25.5580 21.8427 20.2911 20.3799 21.5534 25.7735 58.0430 161.9924 165.3343 94.1535 45.6236 36.5945 35.1039 32.0962 33.0454 33.5338 35.4520 45.2834 68.7792 75.7918 49.4425 37.6595 17.0160 12.6166 14.2799 17.7380 21.1901 24.7073 26.6536 28.5810 30.5436 33.5663 36.7911 38.3591 35.6822 37.4386 36.8787 39.2548 39.2448 45.0270 41.6757 39.7310 47.7393 63.8647 101.5612 70.6502 32.1200 21.9640 22.2815 18.6488
11.3531 14.6548 16.9537 19.0111 20.7912 21.6129 21.5360 21.2755 20.7017 20.1827 18.4299 17.2048 18.1041 18.4306 17.3193 34.8904 135.4963 65.4317 20.3167 27.3615 33.0023 37.0624 37.3551 34.1430 31.0576 28.2016 27.2432 27.9442 26.5052 27.8547 43.3911 114.1078 201.3623 222.3528 20.1762 16.2643 13.3370 13.3311 14.2678 13.9337 13.9328 14.6252 15.9988 18.1117 82.4933 168.2603 230.7732 185.3271 54.4227 46.5682 38.3698 32.8623 28.9619 29.6666 31.4763 29.8857 29.8207 29.2046 32.3513 29.6191 31.6003 33.0162 37.3058 50.0528 69.1395 85.1741 98.4002 122.1091 129.1353 98.4016 79.6357 55.4152 37.5170 32.8062 25.4693 22.8758 20.4337 20.1862 20.9037 23.3258 29.2852 85.8451 179.8741 147.8748 61.4987 44.5522 37.4308 34.7685 31.9762 33.4989 34.0820 37.4732 54.1851 76.7355 67.5515 39.9275 33.9239 25.4458 12.0000 13.2394 16.6375 19.9359 23.3268 25.5594 28.1582 29.7585 32.2152 34.2965 35.1117 36.3896 32.6456 35.8388 41.6987 40.2134 45.3001 37.2584 36.3459 70.8743 19.7019 32.5441 50.4682 76.4945 163.1847 130.6304 31.9587
10.6773 14.3280 17.1532 19.3184 20.2139 20.5534 20.9280 20.9260 21.2328 20.0008 19.5895 20.7320 18.5033 22.8936 128.8965 129.9171 19.7715 26.1711 29.6550 30.0898 29.8045 28.8548 28.6357 27.9964 27.2481 26.1903 25.3627 24.9211 25.9657 35.2214 82.3389 158.4570 173.9042 208.6107 18.8198 15.7236 11.5166 12.0078 13.1836 13.3745 14.8082 16.9550 20.0829 143.7463 206.2157 211.6657 148.7478 43.9907 41.8402 43.1686 37.9264 33.6215 29.1597 28.8363 30.5156 29.3576 29.3460 29.0224 32.5550 30.0526 31.6450 38.7269 50.5064 73.3165 94.0069 102.5717 105.0685 109.4075 73.5753 49.0570 43.3409 38.8801 31.4898 28.3346 22.8223 20.8948 20.0610 20.6843 22.4381 25.3639 40.8680 135.4445 195.1637 79.7801 54.9886 49.0102 39.0662 35.5414 31.6925 33.6471 35.1030 41.4958 64.3757 77.2641 55.5843 34.0092 36.4982 46.0012 11.2456 12.2857 15.3674 18.7811 22.0184 24.3820 26.4096 28.6106 31.6665 33.2043 32.4790 32.2325 34.9198 38.4459 36.8813 36.1994 40.5124 41.6732 49.6635 59.8433 29.3909 49.6495 73.7658 38.0696 70.8933 83.3774 108.4162
10.2837 14.2259 16.4637 17.5816 18.5440 19.3228 19.3209 18.9425 18.8743 18.8007 17.2199 14.9974 92.1382 125.0956 23.6342 21.1049 25.2107 27.6123 27.5985 27.2275 27.0229 28.3184 27.7098 26.7483 25.5828 24.4545 23.1754 22.9687 24.7838 54.6488 136.4414 204.1646 229.7369 22.4133 18.6068 15.1363 10.5842 11.4637 12.9299 14.8310 17.0460 20.2962 162.1582 204.1225 170.3922 106.0575 48.3368 39.7277 38.2979 39.3201 35.9477 33.7226 29.6563 28.4013 30.0467 28.2090 30.1590 29.3018 33.5934 30.3692 36.6761 52.6320 73.0253 99.6496 100.1208 87.6558 86.5176 73.4259 51.7169 40.6814 38.3542 34.5654 27.7657 24.9180 20.4500 19.8648 20.0634 21.5630 23.9290 30.3206 78.8001 186.5957 128.2577 47.9437 51.7222 52.3489 43.4930 35.7363 32.4275 33.6365 36.6674 47.4569 72.3990 68.6734 47.9060 32.3674 31.3090 71.0869 12.0631 11.6627 13.5237 17.9008 20.5655 23.0684 25.2049 27.9769 30.9951 30.5271 29.3191 30.8618 32.5576 33.0705 35.9867 39.1302 37.9946 39.3197 42.3918 41.1539 43.1505 60.7384 51.6872 46.4746 74.3186 87.6873 85.5719
10.0000 13.0855 14.8149 15.8588 16.5641 16.7887 16.7956 17.1521 16.3197 13.9108 19.4998 117.5601 86.4149 18.1997 22.3808 24.1638 24.3995 26.0729 26.7480 26.4488 27.4948 27.7358 26.9605 25.7859 25.4099 23.7447 22.0845 22.6936 26.8573 111.9317 212.2422 218.8327 70.9841 20.7484 17.0164 14.2451 10.4927 11.2324 13.9039 16.9684 20.1730 143.8674 204.9514 141.5143 86.0912 58.8216 40.9041 36.3171 35.7934 36.6463 33.3290 32.0121 29.9735 27.8089 29.9221 27.3792 30.9419 30.4825 34.0535 34.1127 50.5775 76.7681 99.3673 98.7721 76.5618 70.7891 69.4895 57.2414 42.9940 38.2539 33.8500 30.9990 23.8780 22.7142 19.8935 20.3288 21.2456 22.9617 25.5262 49.7628 155.7511 178.3124 54.5644 43.2529 46.1800 52.1634 48.1146 37.5741 33.1288 35.0984 38.7715 54.3214 74.7874 57.8901 41.8478 34.2411 31.2463 46.4877 21.7859 11.1950 12.7056 15.8343 18.9264 20.3728 23.1814 26.4718 27.9191 27.2629 27.7193 29.8355 30.5044 31.8085 34.4398 37.1321 37.7228 42.1628 41.3278 42.4477 49.3769 50.9754 49.8354 54.4425 68.0913 90.0470 85.8768
10.0630 13.3200 15.1083 16.3813 17.3288 17.9141 17.9336 15.4126 17.3762 99.0272 113.9276 23.0258 20.1399 22.1073 21.9974 22.6177 24.1498 25.7379 27.1031 27.9528 28.8459 28.4875 27.3586 26.8118 24.4852 22.7479 23.1621 24.1981 68.5352 203.4345 183.5079 170.9418 22.3699 18.9401 15.9123 10.4106 10.3716 12.5655 15.8007 18.9776 85.0563 211.1391 150.3406 69.8199 54.1832 47.5948 37.2253 33.5800 32.6035 34.5799 31.9487 29.9280 29.1373 27.2909 29.6599 27.8439 32.1590 31.1171 36.0669 44.6850 73.3369 99.7783 93.1678 71.1528 63.5886 65.4000 57.7188 47.7165 38.8356 34.0691 30.3969 27.5479 22.0398 21.1206 20.1992 21.7668 23.2849 25.5657 33.6546 119.7475 190.1850 72.8894 45.1692 41.3729 43.9187 48.8251 49.5945 40.1065 34.7242 36.3006 43.3739 62.7353 73.3245 47.8552 38.8424 37.6206 33.9619 40.5306 145.2147 15.7196 11.8236 13.7860 15.5547 18.7506 21.9147 24.4892 25.0582 25.1487 26.5205 27.8198 29.4809 31.1195 33.4481 35.0886 36.3303 37.8566 41.6839 45.3034 52.1826 49.1639 51.0557 59.2899 60.6828 78.5166 95.0794
10.5554 14.0227 16.3949 18.4248 20.2746 17.8325 17.3859 43.9894 101.9112 58.1961 20.2211 23.5739 21.9819 19.9464 21.0630 22.4098 24.9349 27.2643 29.0258 30.2244 31.0612 30.1404 29.2414 26.1675 24.9123 25.2741 26.9580 29.2275 175.9720 241.8516 169.7678 22.4672 21.6020 17.3785 14.8195 10.3500 11.1647 14.9625 18.3964 21.4077 193.1598 178.3195 54.5252 40.5373 45.9140 43.5367 35.6651 31.7477 30.3473 31.9974 30.2052 28.9860 27.6008 27.4522 29.3554 29.0467 33.8149 34.5812 44.4671 65.5187 99.3398 92.7750 65.8192 55.8355 60.2082 56.9356 51.1437 42.1126 34.5312 30.6073 26.6837 24.3437 20.6772 20.9846 21.2442 23.5339 25.5989 31.7163 94.1238 179.4644 100.1878 47.8887 43.2529 40.9635 43.1246 46.0149 49.9256 40.9384 36.1212 37.7231 48.1589 65.4769 66.4259 42.6600 35.4466 38.2748 43.3658 35.4746 53.7113 130.3621 18.6643 12.2225 13.9114 16.1406 19.3100 21.3081 22.7836 23.8901 25.0100 26.6400 28.5976 30.4726 32.3994 34.5545 36.3652 39.4017 41.4594 46.4770 51.6126 53.3777 57.4534 55.6221 51.9258 72.3317 94.5817
11.0609 14.7503 17.8479 17.1690 15.3485 23.2110 85.1589 90.1304 25.0508 26.3890 26.1979 21.6878 19.3990 19.5878 20.9421 24.1823 27.4445 29.5527 31.6274 32.5434 31.1645 30.2947 28.0329 27.8426 28.8750 30.4002 32.2982 159.1351 255.6757 128.5101 37.3026 21.6489 18.7764 16.3396 10.7548 10.6507 13.7929 17.5826 20.9000 138.7284 212.5645 86.9130 32.5674 36.3536 45.4011 41.2179 35.3622 30.8263 28.7322 30.1812 28.3055 27.1978 27.0283 27.5056 29.0039 29.7682 35.6069 40.0616 58.6747 88.7467 95.5411 65.8105 51.7970 49.3872 53.9783 52.7881 46.3336 37.8482 30.9616 27.7778 23.9326 22.4313 20.7051 21.5307 22.9149 25.7437 30.4238 59.5549 161.5543 136.9739 48.5214 44.6134 42.1671 40.5569 42.1206 45.9344 49.4101 41.1866 37.4370 38.8495 52.3813 66.1189 58.8528 38.9907 34.9815 37.5600 43.6260 52.8557 45.3422 69.8803 108.4944 17.3850 12.0979 13.9911 15.9966 19.0687 21.4257 22.7281 23.8357 25.8532 27.7265 29.4611 31.6199 33.7324 35.6337 37.8049 41.1143 47.6579 52.0714 52.1582 50.9891 54.2191 56.4466 77.6467 81.2124
11.5686 15.5635 14.1773 23.8182 64.7799 76.3156 34.6918 27.4614 32.3139 26.5633 21.9038 19.5481 18.9474 20.1705 23.2439 27.0721 29.3490 31.2910 32.3644 31.0121 29.9612 27.8354 27.8339 30.1636 32.4870 34.1694 76.9141 250.5706 138.4646 64.7113 23.0998 22.0881 18.9481 15.1622 12.0641 13.0827 16.5018 19.7061 68.4959 198.0515 144.1130 42.5461 28.5777 34.8652 44.0895 40.3346 34.7462 30.7163 28.1479 28.2157 26.4323 25.9529 27.1801 27.6496 28.0444 30.6477 39.6790 51.5287 79.6148 95.0801 75.1471 52.9241 43.2367 44.1690 50.5764 49.8776 42.2642 34.1347 29.2234 24.5910 22.8154 20.8963 20.9287 22.8476 24.7669 29.7425 48.0924 131.6999 162.6637 62.5089 42.1059 41.2191 40.4756 39.8198 41.5959 45.3653 49.2781 41.7989 38.2005 40.5066 54.5101 65.7708 52.1329 36.9657 34.9245 36.0434 42.8675 56.7735 67.8834 54.1374 44.6843 81.1435 13.9628 12.0500 14.0124 16.8025 19.4080 21.3818 23.1181 24.8428 26.5844 28.5520 30.7121 32.5529 34.6619 37.8558 42.4860 48.5517 49.9434 48.9493 51.7809 52.9780 54.4973 68.3362 82.4089
10.0146 16.1435 37.2917 54.0158 32.5168 24.8652 33.4639 33.9977 27.8175 22.5247 19.9299 18.7519 19.5434 22.3291 25.9844 27.8607 30.2179 31.0729 29.9233 27.7977 26.2746 26.1231 27.8277 30.2618 33.1737 36.3694 218.6059 215.5127 40.0222 23.9238 22.0183 19.8101 17.3332 13.7963 11.7803 13.2296 16.4348 19.3932 132.8991 205.5593 87.5203 27.9499 26.7157 33.8101 41.6590 40.1687 34.4853 29.9937 27.9529 26.6729 25.4585 25.3916 26.8027 27.2989 28.6898 31.9593 47.3350 67.5964 91.4923 81.0503 58.6986 40.2278 36.3373 41.8579 49.6385 48.0267 39.9547 30.9515 26.2062 23.0178 21.0939 21.0490 22.3184 24.9522 28.7898 40.5489 87.0837 159.8413 92.9281 44.4575 39.2257 39.3735 37.6840 38.3395 41.4765 45.0813 48.9059 41.7042 38.7307 42.2060 55.7733 64.5707 47.8238 35.3363 34.7722 37.2616 42.3671 57.6941 65.5704 60.3217 44.5266 30.0925 61.2586 13.2257 12.4776 14.6511 17.3656 19.9428 21.7238 23.5824 25.8669 27.9473 30.0462 31.4352 33.2479 38.3019 43.1686 45.4109 47.9558 50.1724 52.9407 52.0402 55.0780 65.6050 75.6432
18.2005 31.8362 36.0481 19.0760 27.9787 32.4927 31.9734 29.7042 24.0291 20.3793 19.1212 18.9972 21.3650 24.2284 26.4907 28.1567 29.1734 28.1524 26.0564 24.5253 24.0500 25.6506 28.3041 30.3858 36.9468 176.8407 244.3369 56.5941 29.0683 23.2648 21.2266 19.0456 16.2466 12.7053 12.7473 15.6502 18.4728 93.8609 183.0643 151.8909 45.0389 26.2002 25.0931 32.4387 41.0555 37.4038 34.4478 30.1295 27.2799 25.7431 24.6268 24.0107 25.7590 26.1972 27.6213 31.7045 55.7634 81.4895 87.5088 63.2922 42.5472 32.7552 33.8621 41.6732 48.6685 45.8554 36.3245 29.5107 24.1297 21.6228 21.7321 22.6026 25.0128 29.1386 36.1360 70.2724 144.1428 129.8068 50.5662 43.3077 38.2982 36.9300 35.4519 35.8742 40.4778 45.0678 48.2929 41.5042 38.9627 42.9252 57.0169 61.4339 44.7107 33.8909 34.5736 37.6884 44.3469 54.0972 61.0785 55.9417 50.5671 36.8768 25.8991 43.4588 12.3549 12.6563 15.0648 17.8707 20.1885 22.9499 25.0498 26.7687 28.2837 30.2484 34.3154 39.6062 42.5171 44.6399 47.2934 49.9286 51.9833 50.0964 51.2502 61.3946 69.4567
19.8233 18.4563 21.0456 27.2116 28.5477 28.7341 28.3202 25.8422 22.3027 18.8436 18.8491 20.4046 22.5507 24.9709 25.8766 27.2510 25.9646 24.7598 23.1335 23.1480 24.5350 26.4418 28.4929 30.4180 71.9622 254.4076 113.0934 28.8843 22.6794 21.0821 19.5080 18.0411 15.0266 13.2444 14.6592 17.0373 19.4395 119.7369 182.5612 122.7104 29.7504 26.2903 26.1471 31.7479 40.0212 35.6968 33.0969 29.1682 26.2968 25.2579 23.5857 22.8933 24.6663 25.3394 27.7730 32.5322 67.0531 91.3168 72.8022 45.5321 34.2563 30.8498 32.4926 43.6048 48.8595 43.0337 33.9644 28.0970 23.0568 21.5522 22.3184 24.0301 27.7517 33.1964 54.5698 130.8426 134.5440 57.3326 43.5965 43.0077 38.3017 36.2186 32.8837 34.3644 40.1821 44.9175 48.1388 40.4716 39.0415 44.5656 56.4580 59.3310 41.7480 32.8967 34.4281 37.3211 45.0525 52.4583 55.2265 56.5484 47.1544 42.3097 29.5058 31.2656 20.7976 11.4310 13.2511 15.3805 18.9136 21.8744 23.6484 25.4043 27.3315 31.7951 37.2878 40.1644 41.4038 43.7442 45.8854 49.1282 49.0211 46.9167 47.6346 58.8174 65.6705
14.2327 19.8452 23.4359 25.1621 25.7205 25.6400 25.3528 24.2463 20.6648 18.2577 19.3462 21.2165 23.0287 23.9657 24.4848 24.6462 23.9105 22.7023 22.2195 23.0040 24.7349 26.7953 28.0396 29.8536 208.6107 197.4753 49.3857 27.2196 25.1731 20.6278 17.7544 16.5174 13.8320 13.8691 15.3516 18.0195 23.5206 108.3848 210.5055 74.9312 26.6086 26.0405 27.0500 31.6711 37.9056 34.2221 31.7207 28.4920 25.8648 24.6054 22.6311 21.9490 23.6457 25.2809 28.1584 40.1328 79.7065 88.7820 55.3546 37.2235 33.0355 30.4210 35.0063 46.2378 47.0820 39.7437 31.5722 26.4447 22.6143 22.8338 24.6278 28.6130 34.9283 48.2305 102.3891 142.5021 62.4963 43.3543 42.3655 40.8490 38.0209 35.8043 31.7838 33.4704 40.6583 45.1729 45.7617 39.3421 39.4610 45.7220 56.8670 55.2336 38.8362 31.9277 34.4862 37.2494 45.0443 50.2597 52.3389 55.5930 46.3248 41.9498 32.3408 24.6055 62.9815 12.5022 12.1312 14.1258 17.5445 20.1022 22.3085 24.9868 28.4414 33.0243 36.1000 37.6321 40.8849 43.8332 45.8700 47.2422 46.4755 42.3693 43.1662 54.7972 63.5583
14.0849 18.3766 20.9254 23.0297 23.7129 24.0614 23.7101 21.6460 18.2375 18.2558 19.6429 21.0487 21.7508 22.3963 22.8723 23.1412 22.0215 21.4022 22.3066 23.9416 25.5962 27.2935 29.7734 140.9023 237.8384 83.3974 28.3372 24.1363 23.5789 21.5439 17.2201 15.0269 13.8578 13.8042 15.1270 18.2191 29.7732 116.9888 214.0983 27.0123 24.9380 25.0326 26.8914 32.0996 34.9923 33.8708 30.2602 26.9477 25.4058 23.8772 21.7533 21.0132 23.2423 26.3586 31.4213 53.0787 85.0684 77.7538 42.9234 31.5668 31.8917 33.0663 38.7121 47.1310 44.0184 35.1406 30.0168 25.6620 24.0760 25.6355 30.8706 36.2418 47.3147 74.7626 132.7847 90.2653 39.2881 40.0397 41.5079 39.2059 37.2796 34.7882 31.6311 33.2245 41.1850 45.2588 42.9454 38.0823 39.8244 47.0954 55.9905 50.7212 35.9594 31.6484 34.6039 37.6176 44.9910 48.1322 49.4623 57.0429 44.3620 39.1306 34.1509 25.6768 27.9744 48.4778 11.4553 12.9015 15.2851 18.6277 22.1461 25.3228 29.3250 32.6021 34.3116 36.2511 40.3279 43.0992 45.1551 46.0144 42.8455 37.9798 37.8997 52.5529 62.4941
13.2581 16.5351 18.7415 21.2905 23.1734 22.3730 20.8141 18.9675 18.2585 18.5406 20.0087 19.6932 20.2611 21.4024 21.9573 21.3414 21.0132 21.8020 23.1998 25.0173 27.0629 29.2687 38.3054 230.3030 137.9924 46.0414 29.0964 27.0310 22.3668 20.6369 17.7979 13.9427 13.2894 13.1220 15.1826 18.5096 41.5104 127.0019 204.5564 28.4166 23.9592 23.8283 27.3287 31.0823 32.9304 31.8631 29.6508 25.7794 24.5889 23.0990 20.9668 20.8691 24.0787 28.3600 37.3135 62.3876 85.8722 63.6658 32.5793 28.3071 30.2408 35.9515 39.9960 46.8546 40.4703 33.8210 29.5551 25.9280 27.0742 31.7143 38.6389 47.0827 63.8234 107.8228 120.7142 49.7365 32.8660 37.7360 40.6216 38.4539 35.9497 33.8830 30.9507 33.7246 42.1846 43.9314 40.3163 37.5640 40.8959 47.9676 54.0876 45.7096 33.9227 31.5123 35.1875 37.9132 43.8818 46.3160 48.5841 55.0123 43.6834 36.5731 34.7352 28.4431 26.2498 38.4382 13.6667 11.7815 14.0812 18.4543 22.5748 26.5179 28.8123 30.3447 32.4681 35.3436 39.7046 43.2669 43.9087 42.8504 38.7741 33.2996 34.4801 49.6625 62.8456
12.2565 15.6677 18.4148 20.5782 21.0163 19.7966 18.6818 17.9861 18.8347 19.8932 19.0464 19.9149 20.1865 21.2155 20.5498 20.5966 21.3596 23.0049 24.8446 26.9570 29.0025 31.1350 169.5860 211.2023 77.6410 29.9877 30.4070 26.9199 23.9126 20.7775 17.1022 13.6854 12.3827 12.7460 15.3786 18.7870 58.2676 130.5685 194.7886 33.0126 23.6750 22.7718 26.9466 30.0788 30.7233 30.0290 28.3430 24.9051 23.6195 22.2325 21.1984 22.0928 26.4825 33.0860 45.5007 71.6785 80.7982 46.5193 28.0606 25.0013 30.2220 37.0372 43.2466 43.7579 39.5904 35.3944 30.6973 28.8649 32.8254 41.4646 49.6373 60.5077 85.2938 110.8643 81.6182 36.4035 30.3304 35.0913 39.7946 38.1543 35.2426 32.5412 30.6110 34.3828 42.7055 41.1733 38.9243 36.9310 42.3887 47.6536 51.7023 41.5495 32.6917 31.5381 35.3556 38.3221 42.0992 45.5836 47.2196 51.0883 42.7815 35.4565 33.7035 31.9157 33.0479 30.6365 50.9703 11.6151 14.0602 19.3505 23.1134 25.4250 26.0151 28.2758 32.0802 36.4771 40.5362 42.3504 41.9558 38.7267 33.2942 31.4821 30.8986 44.4598 63.7266
11.5657 15.5204 18.1645 18.7533 18.8784 18.5883 18.4213 19.9288 20.4376 20.9002 21.5580 21.1210 21.1334 20.5545 20.6150 21.2881 22.8828 24.6651 26.6976 28.2926 31.7885 89.0829 228.3598 115.5446 27.7705 28.4061 26.1994 25.4961 23.8784 20.2061 16.9373 12.9310 11.3884 12.2551 15.8516 18.7208 77.7711 130.7244 184.4696 46.1404 25.7634 23.1113 26.2908 28.2481 28.6622 28.4300 26.8867 23.4609 22.4259 22.3021 23.4078 25.2098 30.7235 38.1637 52.4870 73.6215 67.2068 38.6071 23.1512 23.0183 27.9734 38.0868 42.8646 43.6767 42.7834 37.1175 33.9619 32.6931 44.3323 50.8177 60.2617 67.3530 87.5456 96.8393 62.9009 32.3033 27.9888 32.9953 38.9575 39.0679 34.9425 32.0953 30.2279 34.8219 41.7993 38.3559 37.7239 38.0254 43.8095 46.4083 47.1526 38.1846 31.8440 31.4729 35.7374 38.4176 40.4560 44.5378 46.3671 45.9283 41.9020 34.4966 32.8101 35.1694 34.1420 24.3343 40.3979 11.6775 14.6834 19.0002 21.1814 22.8081 25.0548 30.0532 33.0314 36.4954 39.4335 39.9119 37.7446 33.8628 31.9967 30.6931 29.9005 33.6230 65.7633
11.2991 14.9322 16.5888 17.6757 18.5422 19.3660 20.9101 23.0953 24.2099 25.3128 25.3521 24.8047 23.6924 22.4139 22.6154 23.1662 24.1075 25.6973 27.5276 29.9438 36.7174 188.4942 184.5294 46.5780 24.2264 26.4638 24.5815 23.0590 21.7270 19.3515 16.4830 12.0441 11.0634 13.1155 15.6784 17.1653 86.6960 136.5584 163.7882 72.5676 32.4659 24.6120 25.5607 26.4541 26.9247 26.7512 25.5921 22.4287 22.4517 23.9238 25.9583 29.0892 34.8851 42.9754 57.4744 70.6230 51.0988 30.5259 23.3815 26.3758 32.7586 39.4582 45.2152 45.1679 39.4423 35.0208 27.3439 41.3134 47.9519 53.7275 59.2233 59.1250 78.1905 84.2006 56.4553 30.7671 25.3455 29.0985 38.3883 41.3940 35.5429 30.3817 29.9476 34.9635 39.4891 36.8039 37.0872 39.7748 43.7626 44.1427 42.2266 35.6984 31.0312 31.6067 36.5242 38.1796 38.6619 44.3462 45.5959 41.1882 39.6933 34.2232 31.9099 37.3650 36.8861 31.5290 29.2799 11.9153 14.6416 17.9899 19.4996 21.3764 25.1982 29.1090 32.3232 36.4956 38.5823 37.2537 35.1902 31.5659 31.2541 31.2450 31.1155 33.2866 61.7837
10.8995 14.1634 16.0203 18.0502 20.0618 23.1460 26.7069 28.1789 29.8333 30.6097 30.8359 30.4741 29.1365 27.0892 25.3965 25.8123 26.1129 27.5162 28.7678 29.9536 118.9606 228.7997 65.1777 26.1895 25.0992 23.2272 21.9378 21.6814 20.0741 17.3638 14.9555 11.0562 10.8849 13.1115 15.3453 30.9508 104.8386 139.6123 127.0033 86.8263 46.9183 28.5515 25.1426 24.9431 25.0129 24.8621 24.8479 22.3587 22.8993 25.9395 28.6755 32.3405 38.0355 46.8824 60.7621 63.2002 38.3089 26.0789 22.7822 28.0121 33.4175 40.5135 47.6711 44.1446 37.0686 37.3463 33.2420 47.6790 50.0516 50.7760 50.1300 54.7832 72.6070 74.4266 53.0562 33.0368 24.0654 24.0564 35.5863 45.9405 35.5906 28.5935 29.0210 34.5088 36.6119 35.6810 38.0264 40.5333 42.9189 40.5155 38.5585 33.5475 30.8681 33.1809 36.8530 36.7149 38.1811 43.7684 42.3705 37.6692 36.8133 34.5232 32.5336 38.9907 39.9861 28.1451 57.8503 12.2756 14.1840 15.7863 17.5305 21.1340 26.2578 30.6628 34.4475 36.8733 36.9334 34.6625 32.8866 32.5311 32.7552 32.1742 32.1866 34.4318 53.9691
10.4438 14.0323 17.0983 19.5958 23.5625 29.2598 30.8892 31.5158 33.0397 34.0093 35.3971 35.5482 35.4056 33.5089 29.9692 28.8979 28.8529 29.2207 30.6878 37.6956 228.4892 96.8538 40.3707 25.7368 26.1763 23.9541 20.4771 18.6895 17.9323 15.9295 12.1092 11.1732 12.3674 15.8107 17.9035 72.3133 113.7394 133.8080 87.3579 84.9219 66.5402 37.2101 27.3325 24.6605 23.9294 23.4553 24.1283 22.6652 24.0010 28.2748 30.7346 34.1677 39.5969 49.8693 60.2138 49.9338 30.6586 24.1656 22.0230 28.1590 33.9533 42.1848 48.5363 42.5211 37.6399 39.1789 36.1017 50.9375 44.5960 42.2954 47.3694 56.4407 67.7032 60.7039 50.4630 35.8724 25.5869 22.1633 32.1116 48.2013 37.3489 26.5161 28.5325 32.3185 34.5287 35.7791 37.8546 40.9205 39.4194 36.9134 35.2474 32.8542 31.2673 33.5013 36.3091 35.7730 37.7928 41.6447 38.5576 36.0874 34.0935 34.4633 34.7754 40.5322 39.4123 30.1934 44.5323 14.6605 13.0558 14.6416 18.1235 24.5877 29.6495 32.6223 34.1525 34.6557 33.9067 34.4715 34.0294 33.3114 31.0328 30.2026 29.4495 28.3655 47.2112
10.3025 14.7644 18.1743 23.2792 28.3015 29.1318 29.1832 29.6845 30.2124 33.4266 35.2305 37.0980 37.4439 37.3946 35.9172 32.5260 31.6927 32.0798 49.1305 199.7535 162.7387 35.6315 30.9114 25.9975 23.2193 21.5182 20.8985 17.5432 15.3078 13.5382 11.3966 11.8476 15.2378 18.1748 43.0179 88.0483 138.2278 103.8969 53.5105 71.2076 77.3970 51.5783 31.9746 25.9588 23.9450 22.5907 23.1380 23.2725 25.2691 29.7551 31.4297 35.8766 41.1225 50.6582 53.1384 38.7584 26.6914 23.0924 21.0953 28.4520 35.9446 44.4873 48.5145 43.7250 39.1016 39.8873 34.7998 46.1124 39.2738 40.2082 48.4272 56.3510 59.6619 51.6102 45.6278 36.7082 27.4691 23.9331 30.4569 49.1921 34.1713 26.6851 27.6940 30.5872 33.8972 34.1162 38.1187 38.6215 37.4182 34.1151 32.6814 31.7554 31.9410 33.6711 34.8699 35.4254 37.0941 37.6194 37.1891 32.7718 32.1253 36.5154 36.8107 39.0596 36.3218 26.3485 31.1096 15.5444 11.3894 14.1511 19.9114 25.5873 29.6538 31.9827 33.4968 34.1677 35.0969 33.0695 30.8924 28.5803 28.1448 26.8674 27.0831 27.7666 39.9905
10.5857 15.2694 20.3657 24.3632 25.0888 24.7423 24.8618 26.1815 28.5573 29.8803 33.7787 36.0622 37.5751 38.7378 39.0138 38.7563 40.2521 87.0329 185.6470 187.0918 37.1008 35.9699 26.4470 25.6137 23.5155 20.4208 17.6094 15.8104 13.7739 10.7367 11.4874 13.3453 16.0558 31.1956 67.6347 135.1495 121.7366 50.0841 44.9434 53.8808 72.1100 66.6757 39.1027 28.8979 24.6148 22.2540 22.6514 23.5301 26.5456 30.5094 32.4664 36.0875 40.7786 48.0128 48.2798 30.7201 22.7060 21.6839 22.0250 29.3094 38.1703 48.8849 48.6450 42.1737 37.3644 38.0197 31.3873 42.6318 38.0220 43.4609 48.9715 52.9566 50.8210 46.0069 42.8815 35.3117 28.9953 27.8390 32.0628 42.0066 33.9346 28.3347 27.3151 29.4008 32.2822 35.6849 36.1868 36.6146 35.5705 31.2029 30.9704 32.4545 33.2128 33.2790 33.8066 34.5033 34.8429 34.6586 34.8742 35.0078 36.4573 35.9253 36.0346 36.0527 35.2081 30.8807 18.3559 58.5004 12.5824 14.2692 21.9219 29.0989 31.3309 32.0580 32.3153 32.7640 31.6869 30.3729 29.7384 29.2363 28.0211 27.8952 26.9385 25.3746 31.7654
10.6853 15.8419 20.0939 21.2893 20.7670 21.0607 22.6805 23.6405 25.9819 29.4077 32.0352 35.2656 37.4720 41.5340 43.5672 61.7363 158.9040 201.8180 163.3400 45.8909 37.1067 30.9989 25.5881 25.9890 22.2872 20.8473 18.6038 14.7169 11.2891 10.7358 12.4534 15.4342 25.2827 49.2039 117.5144 135.2470 50.3621 36.9374 40.9492 47.9994 54.6000 67.7049 50.3302 32.8123 26.8605 22.6515 22.9100 23.9372 27.5997 31.6417 33.3302 35.8189 44.3484 46.9031 36.6605 26.9535 21.5784 19.0472 24.0036 34.4032 45.1432 49.7933 44.4692 37.2154 35.3717 34.2258 31.6558 37.0935 38.3167 42.8127 46.4707 46.1486 45.9188 43.2957 38.8503 36.5811 29.6464 28.1544 28.1115 31.5320 33.0512 28.5439 26.2603 29.8091 34.2925 35.8783 33.4922 33.2044 34.2821 34.0997 32.8819 32.2818 33.2032 32.9553 33.1463 33.5538 33.1907 33.7219 33.9875 34.4622 34.2609 33.5368 34.1523 32.1201 29.8557 31.3573 30.2611 16.3472 42.7040 21.7414 27.6372 29.8422 30.1847 31.2932 32.3404 33.1769 32.2676 31.0459 29.9323 28.0747 27.4644 25.1544 23.0798 22.1869 22.8274
10.7858 15.6556 17.7559 18.4417 19.6267 20.3755 21.1063 22.9879 24.8283 27.9060 30.9176 35.4934 40.2522 44.1960 91.9846 197.5671 161.1023 90.8570 47.4467 39.2967 37.9172 25.5374 22.7035 24.2274 22.8329 18.7301 17.0493 14.2379 10.0000 10.9349 13.5751 21.3897 35.7155 93.1036 141.7834 63.9120 31.0504 33.9982 38.4893 45.5232 48.2072 58.5421 53.9558 39.0541 29.1907 23.9708 23.1061 24.5022 29.2718 33.9373 33.6479 35.0122 43.8888 36.6652 32.3999 20.3030 16.3704 22.0401 34.1179 41.7571 48.8643 46.2613 38.6170 33.9671 32.3393 32.4740 32.5447 33.9260 36.3282 40.3792 42.6832 43.8275 40.9371 36.7688 35.4881 34.4336 30.6173 26.6520 26.5847 28.9102 28.9557 31.0393 31.8427 32.7463 34.1390 33.2930 32.3055 33.3292 34.1846 32.5080 31.8098 31.2433 31.5487 30.9787 31.2265 30.8042 29.8060 30.7497 32.5327 33.1022 31.7134 32.6663 32.0466 29.9501 28.9916 27.5635 29.6482 27.6616 29.9029 33.0371 30.0965 28.9804 31.1566 32.4930 33.2070 32.8487 30.5709 29.7486 28.1297 26.8974 26.4004 25.5166 24.4137 22.0622 21.0738
10.7062 14.6067 16.3793 17.7954 18.7388 20.2438 22.2399 24.2475 26.3492 27.8003 31.6243 36.0816 41.2532 111.1781 187.1004 81.9384 40.9415 39.8990 40.9542 39.2452 32.1776 27.8544 23.9664 21.8779 20.3270 19.1327 15.0060 10.3127 10.3800 13.1770 18.4820 26.5969 65.3552 136.4695 95.1687 31.8274 28.9846 32.3518 38.4357 44.0735 44.2803 49.3685 50.2694 43.9902 32.5872 26.9267 24.2545 24.2787 31.6166 31.4751 29.2230 28.5501 35.5805 36.2706 29.2865 25.0346 24.8106 33.6883 40.6351 44.5306 44.3168 37.0513 33.5386 31.5239 31.3762 31.3871 32.5010 34.2002 37.4888 38.9841 40.8969 41.5497 39.0906 33.6790 32.7753 32.6708 29.7674 28.7551 29.7791 29.2218 29.9643 30.6325 30.4386 30.3464 30.5352 30.3086 30.3239 31.3675 31.7179 30.0912 30.0072 29.6140 29.4446 28.9310 28.5258 28.1304 27.9894 29.1322 31.4844 31.8285 29.8236 30.6546 29.6950 28.7321 28.1144 27.6974 28.8046 30.5572 20.5169 39.0438 28.0931 29.5958 31.4290 31.5718 32.1139 30.8225 31.2091 31.2380 30.0932 29.9690 27.8531 27.2848 27.7571 26.4589 29.6592
10.1563 13.2793 14.9208 16.6648 18.2084 20.6353 22.8689 25.0974 27.6674 30.2078 32.9684 38.1745 109.5542 176.6432 40.2457 32.6690 33.8350 38.0600 36.1331 34.8094 32.5000 22.6936 22.3869 19.8299 18.2007 16.6073 12.6597 10.0562 11.2875 16.8473 20.7638 46.7897 126.1528 115.3223 35.9103 28.9589 28.1641 32.5916 38.8016 42.1341 44.2004 40.3787 40.2850 42.5093 39.1772 35.8750 28.0809 20.6295 26.9490 28.9833 31.4963 33.7027 32.7885 32.9589 28.0648 27.7432 29.5826 38.2681 39.9606 38.1537 35.7006 29.8179 31.1460 30.2426 30.4044 30.1389 30.5516 32.7074 34.4803 35.0985 35.7289 36.6255 36.7697 31.9550 30.5037 30.9134 28.7884 28.1472 28.5950 27.4738 27.4497 27.4411 27.5081 28.9835 29.2686 28.4765 28.4550 29.6268 29.5813 27.9888 28.8078 28.0675 27.8935 26.8350 26.1691 26.7130 26.6592 27.9993 29.3655 29.8268 28.9081 28.8619 27.6980 28.1324 26.7673 27.5547 27.3545 28.8572 33.5901 20.5012 25.2883 30.7878 30.3028 31.4714 31.1697 31.2321 31.0865 31.3415 32.0896 32.4326 34.1838 31.5535 29.6057 30.1313 39.7345
10.0000 12.9536 14.9985 16.7273 18.5229 20.2379 22.7632 25.3438 28.3486 31.4801 32.9289 102.1373 167.6362 49.5867 32.4111 31.6019 33.7454 35.0304 32.1776 33.0679 28.1487 23.0820 20.2980 17.9357 15.7998 13.8498 10.1663 11.3238 14.9379 19.6670 46.0948 116.4580 122.6051 40.6338 32.3673 28.0314 27.8850 34.0664 41.0019 40.1972 40.1072 40.6559 38.2415 39.5564 24.6325 29.9542 28.7145 27.0840 26.6651 28.1635 28.4335 31.9248 31.2202 30.4670 29.5143 28.5863 34.1004 38.4523 35.5721 30.5443 28.2940 27.5491 29.6065 29.9420 28.9284 28.5736 29.2345 31.0948 32.5010 33.0018 32.1627 33.8466 34.3182 30.3065 28.7992 29.4894 27.4336 26.7933 27.5911 26.6852 25.9381 26.2363 26.7495 27.3200 27.7204 26.7760 26.9505 27.3140 26.9439 26.6618 27.0507 26.6750 26.0929 24.9943 24.5832 24.8660 25.9893 27.1094 27.6603 27.7699 28.1439 26.9014 26.4478 26.6655 26.3914 26.5722 26.2508 26.8033 28.9352 15.9872 32.5392 28.4941 29.2468 28.1179 28.2733 28.9861 30.3366 32.4421 33.4824 36.1920 38.2927 40.9746 39.4417 38.4282 53.7901
10.3881 13.6321 15.9586 17.5776 19.2540 21.0743 23.3064 25.9681 28.1775 30.7758 77.3297 158.1336 68.3157 32.9514 31.6230 30.8229 32.4217 32.4918 31.6890 28.1854 24.9855 23.8278 20.0577 17.1092 14.9613 10.1604 11.1638 14.7813 25.5417 55.5208 106.3206 116.2255 49.9066 31.6373 31.8728 29.3015 26.7277 35.7629 41.3219 38.1047 26.0706 32.9921 34.3726 35.9523 36.5782 31.4807 27.5923 25.1067 26.4846 26.1079 27.2972 28.8553 29.1663 29.1365 29.9877 30.5336 32.1761 35.5723 32.5680 24.4634 24.3016 26.2823 28.7879 28.5162 26.9589 26.8375 27.4950 30.0651 30.5208 30.3134 29.6152 30.9991 31.8074 28.5910 27.5625 27.4485 26.0287 25.3808 25.6588 25.5568 25.0899 25.1000 25.3647 25.2759 25.6828 25.3111 25.0294 25.1424 24.8839 25.5461 25.4990 25.4685 24.1487 23.3563 23.3242 24.1112 25.6558 25.5354 25.3742 25.9674 26.7696 25.5993 25.4807 25.3558 24.9411 24.1435 24.6067 24.9646 26.1910 24.9308 29.2947 24.4903 23.6399 25.4539 26.3287 28.3535 31.2058 32.0169 34.1270 39.1033 42.1598 46.9387 50.9405 51.6916 71.7909
11.0169 14.2447 16.1938 18.4927 20.8890 23.0944 24.8081 26.6745 30.2143 55.8915 148.2797 95.7496 36.3963 30.9266 30.5677 30.9463 29.3242 31.7712 28.9053 25.0520 22.2148 19.8800 17.9120 15.8262 10.3140 11.1738 16.6460 30.8206 49.9218 92.9484 110.4670 66.4913 34.5868 29.2451 30.1054 31.5502 27.8721 26.8547 38.7422 35.5234 33.7040 31.8838 32.1751 32.5546 32.9580 31.4873 27.3635 25.0509 24.4215 24.3777 25.7615 26.2435 27.9239 28.1052 29.8021 29.8856 32.4693 33.6970 28.7031 21.0278 22.1962 25.0458 26.2590 26.8957 25.0265 25.4915 26.5781 28.2267 28.0196 28.1060 27.2808 28.6465 28.6418 27.1526 25.9202 25.3355 24.7955 23.5918 23.7064 23.9452 24.2521 23.9614 23.3612 23.7059 24.1179 23.9527 23.3295 23.3478 23.5342 23.9035 23.8551 23.3663 22.2923 22.1400 22.5709 23.7291 24.7110 23.3096 24.7505 25.0280 25.0566 23.7749 23.5371 23.5502 22.9957 22.7204 23.4974 23.6047 24.8473 27.4858 10.0000 21.1517 24.2468 24.2193 27.1812 28.3396 28.2752 29.5817 31.7271 34.6070 38.6346 41.8040 46.6114 52.3149 89.9055
11.4741 15.3900 17.7305 19.8206 22.3573 24.7552 27.2209 36.3018 76.9832 133.5121 106.9027 43.6403 34.2719 29.5388 26.9641 31.8690 29.6645 29.5067 23.5690 23.2763 21.8225 18.1548 16.3203 10.6474 10.5411 18.3657 28.6776 48.4845 90.3131 106.0858 65.8864 35.1228 36.8616 25.9110 21.5907 26.4538 28.1180 32.4300 35.8822 32.8885 30.7265 29.9993 31.2892 30.7914 30.7134 29.6565 26.9457 23.9952 23.1470 23.2515 24.0110 25.1595 26.3373 28.3395 29.5412 30.4568 31.0756 30.0933 22.2432 19.1445 20.0558 22.8322 24.2205 24.8431 23.7918 24.4241 24.7215 25.8652 25.6403 25.6618 25.0824 26.2575 25.7573 25.4649 24.0343 23.5373 22.8606 21.6668 21.7031 22.5544 23.2093 22.1946 22.7426 22.0806 21.7793 21.7341 21.3525 21.7576 22.1044 22.4609 22.6595 21.8031 21.0277 22.1352 22.6715 22.8821 23.1663 23.0282 24.0392 23.8240 23.5075 22.5012 22.0820 21.9357 21.9299 22.1554 22.8117 23.0995 24.1184 25.2657 19.3376 27.0942 25.5282 25.6168 25.7172 25.9845 26.3472 28.2578 29.2499 31.4284 34.1947 38.6203 45.1514 54.3107 152.9245
11.7326 16.3153 19.1522 21.6228 24.0238 30.3496 54.3367 96.3845 115.3819 99.7842 55.3679 38.4099 30.0044 31.0782 28.1281 27.1023 31.3934 25.9836 21.9426 20.0895 18.7296 17.5438 12.8983 10.5298 18.9707 23.0279 34.9447 78.5000 98.1080 69.6154 36.4426 22.6416 30.3127 30.1231 27.6283 25.7496 26.1498 30.1191 33.3002 32.7043 30.0192 29.2782 29.3825 29.0292 28.7639 27.6226 25.9019 22.9036 21.9162 21.9662 23.3342 24.1526 26.8559 28.2065 28.1385 27.6314 26.7062 25.9230 19.8692 17.5652 18.6561 20.8909 22.1774 23.0151 22.5913 22.9227 23.2655 23.6861 23.8011 23.9153 23.5306 23.6735 23.0736 23.4207 21.7775 21.4822 20.7135 20.2246 21.0995 22.3087 21.8836 21.2371 20.3153 20.1006 20.4543 20.0860 20.4511 21.1294 21.1037 21.6021 21.3891 21.1356 20.9622 21.6580 21.8310 22.4649 22.5685 22.4168 22.3302 22.7394 22.2645 21.9570 21.3882 21.2951 21.9400 22.1172 22.7177 23.4176 24.1762 25.4346 26.9838 21.0970 22.7335 21.8590 24.8734 24.7172 26.8646 28.2239 30.1598 31.5935 34.2032 37.1871 40.1266 45.2695 108.9353
11.7436 16.5623 20.4746 25.6668 44.1015 77.5929 92.6621 85.9903 69.8178 64.5764 49.1213 37.3184 29.1501 28.3130 26.5893 29.2562 25.2865 25.3125 22.6796 19.0626 16.6111 14.1218 11.9014 16.9781 16.3286 15.9577 33.3906 105.8642 40.8055 53.1520 37.1632 31.7476 28.6870 27.1052 25.4058 25.0887 25.4364 28.9964 30.5342 30.0814 29.0654 28.8307 28.4261 26.7206 27.0694 25.7795 24.3347 21.6053 20.9041 21.2957 22.6107 23.8104 25.9264 25.5827 25.6658 24.6397 23.3827 20.6603 17.4521 15.9077 17.8250 19.6038 20.4288 20.9011 21.2773 21.2663 21.9109 22.0827 21.9338 21.8638 21.5293 21.3246 21.2018 21.2389 20.0715 19.8912 19.4155 19.7586 20.8375 20.7299 19.8283 19.5240 19.3259 19.3267 19.9842 20.1121 20.2827 19.8611 19.6936 20.3614 20.4903 20.4691 20.5914 21.3501 21.8386 22.3451 22.6832 23.1838 23.0833 23.1103 22.9229 22.6279 22.6246 22.6962 22.9681 23.2934 23.2445 23.7310 23.9450 24.5838 28.5006 12.4016 18.5858 25.7707 24.6126 27.0304 27.7963 29.3674 30.8529 31.8690 33.2492 34.7962 38.9225 53.6397 96.6564
11.6181 19.2303 35.6763 66.2715 79.7685 69.5275 47.8341 47.8844 62.0466 70.1639 43.8082 31.3329 28.0576 25.5670 27.7195 25.3556 24.7202 22.1629 20.0279 17.9909 14.3820 11.5855 13.8078 13.1126 13.0471 17.4909 61.9257 90.0030 66.9681 39.3509 31.5589 27.6272 27.7433 27.2271 24.7688 23.2842 24.4695 26.2404 28.3647 27.8013 27.5976 27.2903 27.3829 24.8770 24.9556 24.1796 22.3597 20.5658 19.1581 20.2014 21.8281 23.2431 23.3476 23.6323 21.2919 20.3575 18.5215 17.5931 15.3742 15.5859 16.4620 18.7721 19.4599 20.1346 20.2264 20.1908 20.8081 20.2603 20.7277 20.0829 20.2380 19.6304 19.7968 19.2653 18.5213 18.1020 18.6672 18.7998 19.3218 18.5642 18.0464 18.3649 18.5260 19.1997 19.6595 19.7847 19.3062 19.1897 19.2930 18.9651 19.4486 19.9455 20.7203 21.4050 22.3944 22.8169 23.6327 24.0719 23.7575 23.5680 23.9156 24.0994 23.8252 24.2907 24.1048 25.0164 24.4021 24.4967 24.4661 24.3609 31.7581 26.2689 33.7413 26.3490 26.8966 26.4965 27.4555 28.4476 30.3546 32.7604 35.7432 40.2112 47.8898 60.0966 77.6723
21.9568 48.7596 62.9087 57.3862 40.9599 32.1316 35.0335 48.8796 62.2886 64.1507 41.1717 27.5687 25.1170 24.9096 22.4284 24.4810 23.4149 20.2933 17.1536 15.6380 11.7054 11.5313 12.3696 14.3249 23.5894 44.2602 82.9175 65.7205 45.4995 37.5442 32.9513 26.7214 25.1114 25.2999 23.3020 22.7617 22.4809 24.2377 25.5344 25.1287 26.1212 25.2219 25.6085 24.1589 21.9230 22.4617 20.0523 19.5957 18.5423 20.5582 20.0192 20.4578 20.7691 17.7196 16.8317 16.4528 15.7379 15.2406 15.2149 16.2224 16.6494 18.2766 19.5919 19.6293 19.5849 19.4482 19.1176 18.9366 19.2011 19.1623 19.1004 18.9569 18.7326 18.6410 18.4052 18.2014 17.8176 17.7696 17.4410 17.3228 17.8196 17.8570 18.6314 18.9131 19.5370 19.8564 20.1199 19.5560 19.5216 19.0138 18.9110 19.8651 20.3570 21.1549 22.7321 23.3409 24.0972 24.2452 24.7424 24.5786 24.9612 25.5548 25.3119 25.1013 25.4354 26.0585 26.2461 26.4994 26.7516 26.0192 29.3436 33.7997 22.3799 26.7096 24.1624 24.7102 25.5101 27.8659 29.9430 33.1093 36.3501 41.5215 47.9006 53.8793 61.1384
37.1549 47.1020 43.6831 35.9098 29.5091 25.2589 32.5479 47.1971 65.9782 60.5445 35.5839 24.9999 22.0976 21.2218 21.3994 21.1298 20.3535 18.1397 15.7360 11.0044 12.5216 12.6095 16.3499 24.5486 40.6027 68.8894 72.4214 52.7217 37.6910 34.7772 32.4544 28.4459 24.6380 22.8948 22.1616 21.1425 21.1305 21.7621 22.7406 24.4928 23.4616 24.4863 22.5202 22.2987 20.1666 19.3141 19.0284 18.9948 18.1341 15.4378 15.8898 16.4713 15.2937 13.6591 13.7093 14.4073 14.8433 16.6732 17.1176 17.0098 17.5428 19.3031 20.4329 20.7233 20.3151 19.5182 18.7873 18.7003 18.8101 18.8098 18.8780 18.3846 18.3446 18.5819 19.5766 19.3863 19.2597 18.5674 18.3007 18.5894 18.4264 18.7963 18.8277 19.6131 20.2452 21.1126 20.9477 21.2350 21.1121 20.7256 20.1462 20.9115 21.1214 21.3779 22.4494 23.7351 24.1353 24.0211 25.2521 24.9701 25.3970 25.9158 26.7030 26.0710 25.8864 27.2573 27.6917 27.6219 28.2771 28.5113 29.3411 33.5051 16.5020 24.0028 21.5253 20.9928 24.2075 26.7069 29.4576 32.1905 36.8291 41.0541 46.6019 48.4137 46.3887
41.5782 45.7941 38.4576 28.2656 25.1011 23.7927 30.5965 51.1773 67.5842 52.1362 34.6330 21.7431 19.6269 19.0209 19.1052 18.2479 17.6218 14.8873 11.5349 12.0305 13.3498 17.5835 28.1565 43.4795 57.3135 66.5717 49.8046 36.9165 34.8150 31.5036 30.0917 30.1852 26.2604 22.5792 20.9350 19.6273 20.0649 19.8249 21.6824 21.5672 21.8518 21.5136 21.4163 19.7657 18.8475 18.6752 16.3359 16.6933 14.6962 12.2124 11.2914 13.2857 10.4439 10.8227 12.2870 13.3960 15.0538 16.3135 17.5025 18.6429 19.6299 19.9551 21.6217 22.1366 21.8922 20.7960 20.5170 20.6046 20.5321 20.4752 20.2473 19.9466 19.5502 19.5184 19.7858 20.3591 19.9135 20.1476 19.7312 20.2755 19.7592 20.2826 19.7121 20.5386 21.2005 22.9801 22.5151 22.4872 22.8492 23.2048 22.2188 22.5845 22.7980 22.6019 22.8552 24.1128 25.2283 25.5683 25.2902 25.6884 26.1466 26.8531 27.6446 27.6072 26.5424 27.3988 28.7032 28.3850 29.5390 30.1849 29.6824 38.4451 30.1249 43.0346 17.7720 27.4742 27.6320 27.2409 28.6530 32.1198 35.5226 37.1746 38.1170 39.4455 36.7043
46.6508 42.6912 30.8287 26.7602 23.6863 23.4159 29.3479 50.7922 68.6047 47.9789 29.1735 19.4186 19.6378 17.7646 15.9085 16.2081 13.7052 11.5771 12.8295 14.4823 20.6583 30.5757 40.7099 48.5590 52.7893 47.0311 38.1595 32.9158 30.2724 29.5242 27.1504 27.2749 26.4240 24.1595 21.0731 19.6420 18.3889 18.8725 19.0740 20.4494 19.6637 20.5363 18.9751 17.1471 16.5047 15.2565 15.7050 17.0030 19.6859 27.7119 10.0000 10.9641 10.0000 10.3194 12.0727 14.1502 15.9095 17.7115 19.4596 21.4789 20.6730 21.8732 23.2408 24.7476 24.8579 23.4134 22.1587 22.0384 22.3016 22.1890 22.0054 21.7427 21.1367 21.0209 21.0395 21.9962 21.8489 21.9976 21.7188 22.4304 21.8345 22.2090 21.9654 21.7183 22.6295 24.1086 25.2375 24.2394 24.4163 25.1643 24.6696 24.0222 24.4768 23.9606 24.1081 24.5428 25.8303 26.8408 26.5825 26.2970 26.5817 27.2100 28.5217 29.1558 27.5727 27.5751 29.3502 29.4693 29.9095 30.9381 31.0478 37.7155 36.4185 22.1052 47.2750 32.4079 29.7281 28.4406 28.9926 29.6974 31.0606 33.7768 34.1409 32.7291 27.6220
46.0965 40.8257 29.0838 25.0307 22.8583 22.8051 28.3677 48.9868 65.8663 47.1685 24.6698 19.4292 18.4872 16.2330 14.9812 10.3255 12.0925 14.2654 16.0996 22.8917 30.0741 35.7048 40.5496 43.6087 40.5120 34.8779 31.7238 28.8999 27.7104 25.6299 25.7493 25.1481 24.7475 23.6347 21.6766 18.9893 16.8230 16.8779 17.8514 17.8817 17.4725 17.2042 15.8789 15.0263 13.8410 14.7930 15.7223 17.4793 18.1607 21.1870 34.7032 12.0982 13.1340 13.2547 13.7937 14.2856 16.1342 17.8003 19.6293 22.0896 23.7318 23.7202 25.1794 26.9936 27.7378 27.0303 25.1252 23.6130 23.8550 24.2266 24.0697 24.5166 23.4049 22.5792 22.8802 24.2824 24.0891 24.2161 24.0353 24.9879 25.3710 24.4423 23.9685 23.2288 23.3458 25.4902 27.0180 26.7704 25.8121 26.8187 27.0657 26.0825 26.1386 25.9538 25.3670 25.7445 26.5285 28.7359 28.5128 27.4822 27.6659 27.9528 28.6565 30.9122 29.7644 28.2359 30.2846 29.8115 30.3419 31.7105 32.5279 34.8281 38.4184 24.0934 30.5607 33.4981 29.9357 29.3052 27.1154 27.8291 28.4799 29.5819 26.1477 23.9502 22.4494
46.4067 37.8053 26.8254 23.8846 22.2318 23.2707 29.4214 47.0362 59.6035 46.8767 27.4200 18.4343 16.6991 16.2460 10.0495 12.6140 14.9434 18.3898 24.1015 27.4970 29.7334 33.7114 35.6686 34.7430 30.6690 28.8931 26.7675 25.5221 24.1820 23.5393 22.5319 21.9209 21.1874 20.9781 21.2465 19.6078 16.9663 15.4379 15.2448 15.8544 15.6036 13.9025 14.5574 13.0516 14.2758 15.1629 16.5397 17.7815 17.7283 15.7051 11.3548 37.3676 22.2477 17.4660 16.7455 16.4763 17.0889 18.9093 21.2418 24.8474 22.5454 25.9070 26.1892 28.4268 29.6640 30.6125 28.7202 26.7054 25.7781 26.5979 26.6752 27.2658 26.5967 25.4220 24.5317 26.0716 26.1018 25.9313 25.8418 26.5346 28.1974 27.5635 26.4207 25.3625 24.8113 25.9844 28.0641 28.7484 27.3522 27.3288 28.6646 28.3960 28.2271 27.5663 27.1242 27.0945 27.4792 30.3925 31.4397 29.5514 28.9528 29.4815 29.4349 31.2694 32.2666 28.9493 29.9714 30.9252 29.6804 30.1961 31.5699 32.3351 41.4827 32.2212 44.0042 20.4642 31.0365 31.0820 28.2743 25.4007 23.6339 22.0452 19.9668 17.1852 18.3857
46.3263 34.0945 24.5142 22.9090 22.4541 24.3635 31.9730 44.1582 51.9447 42.7250 31.9057 20.1661 17.8232 10.0218 12.8568 15.2137 18.2338 21.5720 23.5378 24.6331 26.9776 27.4035 29.1166 29.6511 28.6835 22.8315 21.9402 22.3718 21.0651 18.9701 18.9478 19.1947 18.9336 18.2775 18.0765 18.5259 16.0158 12.8475 13.3969 13.9012 12.1619 13.1040 13.4474 14.6554 14.9201 14.9407 15.2464 15.3174 16.3432 18.4799 18.3962 26.6699 33.8242 26.1738 21.8441 20.3039 19.4148 20.7809 21.5790 25.3262 20.0160 26.0649 27.0945 29.6006 31.4656 33.0167 32.3382 29.7929 28.9766 28.6341 29.0787 29.2740 29.0947 28.3042 26.5353 27.4682 29.1764 27.5727 27.8538 27.8591 30.0393 30.4812 29.2611 27.6538 27.4052 27.3142 29.0971 30.4756 28.8521 28.2290 29.1252 29.9270 30.1344 29.7353 28.8207 28.6290 28.5410 31.4814 33.6985 32.5179 30.3011 30.4250 30.1008 30.8582 33.2125 31.9603 29.3885 31.0382 30.7481 30.1592 30.4671 31.3127 39.3647 36.3699 35.5034 47.5073 27.6884 29.4372 29.5693 24.1989 21.3402 17.4732 13.4234 12.2454 13.0308
46.2784 29.3199 22.5659 22.7639 23.2834 26.5575 33.7947 41.3231 44.2220 34.7001 31.7850 22.1752 17.3893 12.7712 14.1469 15.1077 17.4450 18.7875 20.3832 23.2556 24.8181 25.7444 25.1932 26.2297 22.2704 18.3958 16.2342 15.8120 18.3650 16.6355 16.6267 16.1185 15.8021 15.0814 14.2476 13.6995 15.6165 11.8611 10.7925 10.6520 11.6239 13.0426 14.1390 15.4376 16.3404 16.4987 16.5850 16.9316 17.1944 19.1016 22.0436 26.9629 32.1590 34.3504 29.9385 25.2491 22.8594 21.4188 21.2123 25.3100 21.6799 25.5876 28.1800 29.9805 32.7914 34.9052 35.4517 33.0567 31.4154 31.6470 30.9688 31.9468 31.5044 30.0901 28.9233 28.6252 30.9867 30.7995 29.6775 29.3956 31.8935 32.4886 31.3510 30.3361 29.5662 29.2703 30.7008 32.2837 30.3988 29.2838 30.3676 30.9122 31.2784 31.7305 30.4792 30.2369 29.5279 31.2068 35.8379 35.2523 32.2506 31.3659 31.3319 31.3804 32.5335 33.0044 30.6068 31.9335 31.5630 31.2948 30.9066 31.4273 37.1279 37.8389 21.5810 50.4549 28.0770 25.4971 28.3273 27.2279 19.1292 16.4275 13.9614 12.5895 11.9040
44.0722 27.2964 22.5643 22.6164 25.0617 28.8147 35.4179 38.8905 36.2514 33.7130 22.7290 20.9979 12.9393 15.3355 13.0277 13.4235 15.7124 18.0032 20.4857 21.6864 23.4746 23.6832 22.2055 18.6955 19.5796 11.3079 10.6371 11.5099 13.4132 14.7607 14.4881 14.4785 14.0818 13.5474 11.9044 10.1461 10.0000 11.2526 10.0000 11.2809 13.4938 14.5078 15.6627 17.0080 18.9256 19.5216 18.9155 19.7875 18.6699 18.9814 21.1840 25.5364 30.9598 35.4301 35.9420 35.0497 28.8504 24.2769 22.7877 27.0292 21.6642 19.8821 27.0541 29.4067 32.7621 36.1209 38.2350 36.2023 33.8614 33.7504 33.6876 33.6449 34.2449 33.1034 30.4640 29.4955 31.6433 33.3525 32.7650 31.6748 33.0751 35.0025 33.6237 32.8676 31.5815 31.7247 32.6008 33.7826 32.6496 30.3686 31.2382 32.3665 31.9436 33.1190 32.0551 31.2790 31.1396 31.2109 35.8213 37.8826 34.9236 33.3798 33.2886 32.4648 33.4325 34.4063 31.4627 32.2675 33.5118 32.9993 31.5507 31.8546 34.3177 41.1426 27.0120 58.0264 23.8120 25.7363 27.9204 30.8913 25.5123 20.4774 16.5948 16.4717 16.9968
39.7261 28.8726 23.1262 22.8264 26.8144 31.7650 35.1050 34.6718 30.7316 23.5094 20.2804 13.1341 15.7445 13.2727 12.9714 14.1669 16.6393 18.6257 19.6064 20.9136 21.1573 20.6739 18.9909 19.8476 10.3599 10.6342 10.4643 10.5142 13.9024 15.0963 15.2899 14.6991 13.6054 12.1049 11.2730 11.2972 10.6824 10.2603 10.1960 13.3165 15.4904 16.9776 18.5030 20.0525 21.3524 22.2326 22.5352 22.1726 20.9663 18.1730 18.7166 23.4893 28.1146 32.2893 35.9317 37.1166 36.9695 30.8157 25.5457 28.4236 24.1006 20.0763 23.4370 27.0708 31.7992 35.9398 39.8420 39.2973 36.4192 35.8808 36.5915 35.2505 36.3207 34.9089 33.4337 31.1942 31.6775 34.6779 34.7656 34.1663 34.1545 37.2042 36.6922 34.7572 33.6520 33.5028 34.7752 35.4385 35.0751 31.9262 32.0071 33.5862 33.2053 34.2417 33.3608 32.6287 32.3137 32.5736 36.4254 39.1383 38.1086 35.4963 35.2342 34.0194 34.0948 36.1212 33.1128 31.9189 33.5571 34.7355 33.0706 31.9702 33.2556 41.0426 36.8622 68.2698 14.2232 20.8690 29.1840 31.5608 31.0895 26.1713 21.8910 20.2073 21.6392
35.1711 28.4035 23.5929 23.8734 28.9577 31.5412 31.2266 25.6557 23.9467 18.2190 14.7397 15.1483 13.0071 13.2215 14.1085 16.2222 17.6292 19.1965 21.2122 21.6314 21.9255 21.0535 19.8991 17.8616 18.5472 15.9541 15.1710 16.9200 19.6244 17.5412 17.2877 16.3946 14.6887 13.8938 13.9143 14.3883 13.6052 12.9227 13.4048 15.2116 18.0378 19.1013 20.1517 21.8657 23.4870 25.2340 25.5999 26.5448 22.7857 18.0663 16.7521 19.8176 25.6037 30.7247 32.9164 35.6760 38.7218 36.9474 32.2284 30.3458 27.5374 22.7615 29.2166 21.3812 28.8698 34.7049 40.5005 41.7315 39.3056 37.8173 38.4878 37.6219 38.0376 37.3927 36.1603 32.6037 32.2437 34.6604 36.9724 36.4447 35.5242 38.6969 39.6172 36.9151 35.4533 35.5251 36.7924 37.5407 36.7945 34.1616 32.7585 34.2822 35.2070 35.3278 35.2891 33.8306 33.9821 33.9688 37.3540 40.9540 40.3855 37.8231 36.7870 35.8329 34.5811 37.0469 36.7633 31.9799 33.4613 34.8809 34.9544 32.6990 32.6466 38.0708 38.8234 22.5025 72.9604 14.4515 25.9181 33.4324 34.0154 30.2406 25.8942 26.0651 25.3754
31.3640 25.9218 24.7336 24.2066 25.0259 32.2653 24.2170 14.8878 20.0407 17.5159 15.5337 12.5116 12.4104 13.9693 15.5063 17.7539 20.2289 21.5389 22.3552 22.0411 22.5460 22.9386 22.0216 20.8680 22.2857 21.5603 21.1545 21.9004 22.5190 21.7343 21.1886 17.8010 16.3883 16.5843 16.7921 17.5654 16.2158 14.4027 15.0285 17.0818 19.5088 21.0647 23.0697 24.0295 27.0075 26.2919 29.6721 28.7764 24.7882 19.2173 17.3592 17.6647 20.4873 31.5303 34.1103 34.6040 38.1005 40.0895 38.1630 34.8073 32.4673 21.5762 34.3601 22.4520 26.3079 33.0216 39.0621 43.6977 41.4555 40.4125 40.8271 40.1294 39.4789 39.8172 38.1883 35.1914 33.4644 34.9810 37.7061 37.8651 36.7829 39.9980 42.1913 39.9944 38.1709 36.8742 38.5343 39.6012 39.6508 35.8786 34.3991 35.5049 35.4982 36.8657 37.3475 35.2959 35.7326 35.5273 37.2797 42.3720 43.2876 40.0011 38.3278 37.7279 35.7283 36.4471 39.9623 34.3389 33.4048 34.7910 36.0253 34.0473 33.3289 36.0325 41.1255 26.4734 79.3343 11.1932 22.5222 32.9044 35.3786 34.5906 30.5052 28.4119 29.9098
27.4776 23.2359 28.4529 21.0249 14.2874 31.5142 21.1268 18.9752 15.9550 14.2476 12.2829 11.5961 12.6558 14.2430 16.6912 18.8067 20.2104 21.7457 22.7712 23.9671 24.2943 25.2730 24.0962 24.1805 24.8498 26.2480 26.0915 26.9842 27.5539 24.9416 22.8215 19.6752 18.9559 19.3323 20.7656 19.6277 17.3212 16.0092 16.7631 18.8594 21.0297 23.6742 23.4452 25.4717 27.5416 30.0889 32.7791 31.7353 26.6537 21.1454 15.9202 20.6234 26.6100 28.2074 31.7486 35.5634 37.9534 40.7122 41.7507 39.4093 37.0087 31.7548 38.2763 28.6153 27.2423 31.7756 37.7730 43.4509 43.9785 41.8811 42.1639 43.2972 40.8453 42.1654 40.5982 37.8634 34.9940 35.3454 38.3433 40.0185 37.9918 40.0261 44.1412 42.5689 40.9425 39.4378 40.3080 41.8980 41.6338 38.9991 35.9801 36.7973 37.0777 37.0887 38.9863 36.8368 37.0193 37.3745 37.5714 43.1048 46.4553 41.9923 39.8019 39.7593 37.3911 35.8928 40.4952 38.2518 34.5705 35.2099 36.2777 35.6767 33.8385 35.1523 42.4972 35.4913 86.5322 10.9150 16.8958 30.5443 38.4884 35.5788 33.8345 34.5914 34.8670
26.8688 12.0146 22.6420 28.9537 25.9823 19.9722 17.1695 15.0125 12.9415 11.4144 11.8607 12.8118 14.6974 16.3180 18.0643 19.5097 21.4435 22.8030 24.5212 24.4218 24.5347 25.8723 28.0872 27.5355 28.6405 29.9150 30.0904 31.0627 30.4017 27.3035 24.1027 23.0428 21.7608 22.4170 22.4687 20.6511 19.0035 17.7475 19.0269 19.7775 21.8674 24.6351 25.6122 27.1762 28.9091 31.9024 35.0929 34.0153 28.6734 24.2956 21.0434 16.9744 20.7884 28.7712 33.1333 33.6795 37.1682 39.6419 42.0696 42.4030 42.2959 34.4641 32.5031 41.5869 34.6456 33.5629 36.5464 42.9559 44.9157 43.3508 43.8934 45.2736 44.0287 44.0203 42.5368 40.7703 37.7583 36.1688 38.9088 41.1222 39.8461 39.9132 45.2234 46.2084 42.8244 41.6940 41.9307 44.0751 44.4980 42.2755 37.8729 37.6286 38.8902 38.4339 39.6698 38.6155 38.0678 39.2166 37.9234 42.4256 48.6386 46.3694 41.0428 41.5816 38.9518 36.9497 40.3979 41.0357 35.6052 35.8834 37.5217 36.0322 34.6002 34.4990 41.2488 38.9057 20.3796 88.9299 12.9313 24.9257 39.4333 40.9602 35.8939 37.2508 39.8650
17.1054 23.9867 25.5656 20.5064 18.6898 16.8520 14.1210 11.8409 11.1838 11.8001 13.1655 14.9212 16.5609 18.2746 19.6145 21.7669 22.4917 23.1293 24.6840 26.9209 28.2934 29.0333 31.0340 31.0939 31.1582 32.4024 33.1204 35.4530 34.7160 30.9487 27.6496 25.5452 24.4414 24.2446 24.3347 23.0059 20.4612 19.7433 20.4503 21.1310 23.1527 25.4438 27.6827 28.2906 28.6041 32.7191 36.3211 36.7469 31.6259 26.3094 23.7211 21.6046 21.6825 27.7799 33.7645 34.3086 35.7717 38.3784 37.0061 40.0398 44.2540 42.9280 36.6839 38.6296 40.4155 38.0929 37.2996 41.5454 45.8414 45.1176 44.9128 47.0072 46.1105 46.3732 45.4376 43.7614 40.4300 37.8789 38.9647 42.4223 42.1644 40.2509 44.6325 48.5012 45.6678 44.2911 43.5625 45.7391 47.2964 45.5700 40.5498 39.3192 40.1519 40.1811 40.4051 39.7002 38.8897 40.4237 39.1395 42.1145 48.6017 50.0216 44.0165 42.6561 41.3608 38.0006 40.4326 43.2660 37.9308 36.0352 37.3529 37.8839 35.3257 34.8491 38.7937 43.9681 23.6727 93.4934 14.4717 19.5486 35.4967 41.2918 40.0621 40.9136 45.4991
17.1265 22.5038 19.4791 17.2157 15.4593 13.2735 11.1408 10.6466 11.5675 13.9326 15.8494 17.7278 19.6689 20.1659 20.9826 21.9724 23.6817 25.5375 27.5931 28.5753 29.0502 29.7020 30.1191 32.4251 33.5172 36.3454 36.9325 39.2608 39.1646 35.7337 31.6104 28.1131 27.6955 26.8558 26.0968 23.8847 22.1097 21.7889 22.2096 23.0643 23.4772 25.4778 27.9232 29.3067 31.5611 34.7999 38.1659 38.2609 32.1402 28.3732 26.9438 24.8019 23.3508 27.1341 35.3464 38.4467 37.0181 37.3806 37.8681 35.8048 34.9980 36.3211 41.2086 43.3324 39.6016 41.5271 40.4391 40.8538 45.3973 45.7918 45.3735 48.5004 48.9949 48.1200 48.0859 45.6221 43.6350 40.5450 40.1467 42.9385 43.1011 41.7919 44.8244 48.8203 48.8123 46.7463 45.0669 46.6273 48.7913 49.9771 44.1191 40.9896 41.9326 41.7622 41.4407 41.1452 39.8821 41.2228 39.9625 41.2911 48.7675 52.8987 46.8689 43.8126 43.6403 40.0491 40.0451 45.2234 41.0762 36.3574 37.4338 38.6990 36.4702 35.2962 36.7147 45.8303 36.5901 99.8695 12.4145 18.8178 31.8621 41.8436 42.1629 44.7817 49.5602
15.5635 18.8835 15.0387 13.7873 11.8008 10.7537 10.7185 12.0098 13.9690 16.1504 17.9682 18.9736 20.4963 22.0388 23.2077 24.0026 24.4983 24.4154 25.5911 27.7646 29.6890 31.3587 32.0381 32.1993 33.5212 36.3679 40.7691 43.7441 45.6954 41.9742 35.8399 31.0537 30.0674 28.0787 26.7913 26.4157 24.2336 23.4528 23.7064 24.5529 25.5503 25.9562 29.9736 29.5453 32.6176 36.8504 41.1307 39.4966 33.6289 30.5301 29.4235 26.9047 25.4652 26.0645 33.7771 45.2812 48.5752 35.1477 28.2836 39.8183 51.7779 34.2811 29.9474 41.3459 41.9125 44.8597 44.3349 41.8891 45.3974 46.7358 44.8980 48.1475 51.2986 49.7691 50.8636 48.5249 45.8564 43.4225 41.6249 43.7251 45.1098 43.1815 44.8755 48.7859 50.3604 49.1446 47.4030 48.4815 49.6970 52.2092 49.1235 43.9044 43.7212 44.1806 42.8306 42.4495 40.9671 41.9509 41.4418 40.8092 47.9168 54.8885 51.3167 44.9962 44.9748 42.6460 39.6085 45.1123 45.8599 37.9295 37.7433 39.2930 37.8181 35.8043 36.7650 43.4093 41.5192 19.3769 101.3385 14.9453 29.7258 40.5202 44.1659 48.4175 53.4587
12.7450 14.5689 12.1004 10.6503 10.6713 11.6587 13.4639 14.9194 16.0207 17.0714 18.9263 20.6244 22.2875 22.8758 23.3949 24.5089 25.5425 25.7890 26.0443 27.5649 28.7273 31.3672 34.4275 36.9372 37.2099 36.1242 38.7413 43.1225 48.0179 50.3867 41.0849 35.3230 32.2313 29.6347 28.4808 27.0633 26.4289 25.2783 25.1015 27.0340 26.8587 28.1011 26.8449 32.5449 35.5802 38.2652 44.9478 43.6685 34.9028 30.8352 30.6293 29.4351 28.0744 27.0955 27.8473 26.7248 43.0805 57.6240 43.7503 38.0665 36.8382 58.9009 39.0437 33.4100 40.5772 46.0444 48.1583 44.5846 45.2612 47.7578 45.4256 46.7541 52.1482 52.5553 53.0794 50.0273 49.3782 46.6726 44.6076 44.6419 47.0168 45.0507 45.3181 49.5441 51.6898 50.9091 49.9195 49.9985 51.7951 54.0947 53.5214 48.4735 46.5206 46.7174 45.8475 44.8696 42.6192 42.7936 42.5780 41.0132 46.5128 55.5523 55.9400 48.0438 46.3881 44.5394 40.9922 44.5192 48.2006 41.1869 38.2020 39.9715 38.8448 36.8375 37.3260 40.9493 47.0141 24.5606 98.3123 45.7169 30.4849 41.3194 43.3255 51.0839 57.7213
10.7823 11.5685 11.3488 11.3440 12.5419 14.3989 16.8122 18.4786 18.7694 18.8117 19.8754 21.5908 23.0400 24.5470 24.8471 25.4903 26.6130 26.7478 27.7344 28.4780 30.5944 31.6919 33.6491 37.3524 38.8171 39.2934 37.3371 41.6892 49.8905 56.8771 49.2051 38.8932 35.2772 32.8657 30.3487 30.1310 30.3829 28.9762 28.8994 29.5456 32.1610 26.6812 19.5073 21.7225 33.2463 40.8398 49.9026 54.9662 42.8733 31.8283 29.4223 24.2514 20.1189 28.2011 33.3852 31.1987 31.1425 39.5022 50.6450 41.4707 37.7811 49.0885 53.7675 40.3789 39.4077 41.9189 48.8494 48.0671 46.5293 48.3502 46.9087 46.5702 51.7006 54.0487 54.6654 52.9556 51.5214 49.5860 47.6445 46.5974 49.3224 48.3901 46.4505 50.7590 53.1067 52.3395 52.1595 52.4747 53.9416 55.9251 56.9416 52.8051 50.0678 49.5478 49.4370 47.6058 45.1694 43.6948 44.0803 42.0168 45.2237 54.3777 59.5151 52.5303 48.1437 46.9648 42.7542 43.8944 50.0834 45.4065 38.7258 40.1330 40.2724 37.6592 37.7875 39.4034 48.3424 37.5321 104.7843 23.5991 36.8304 42.5516 44.1720 51.1601 61.7216
10.0000 11.9819 14.5224 15.8028 16.5524 17.5097 20.2822 22.4326 23.2919 21.9955 21.2419 22.3030 24.2354 25.1171 25.8109 26.5416 27.9342 28.2062 28.6566 29.9667 30.8716 31.6094 32.4883 35.2401 38.8836 42.3227 42.2441 41.5434 47.7126 45.7779 66.4019 35.7396 37.0190 37.1433 33.7434 32.1847 34.6834 31.3269 25.1873 33.1389 24.7424 23.8460 32.8491 20.0394 19.0967 32.5141 43.3018 56.4290 51.6737 36.5872 35.8098 31.4294 25.6332 26.4928 29.8245 33.1702 31.8491 36.2106 42.5059 41.1636 38.9200 44.6507 50.8733 47.3669 53.6160 36.6617 45.9547 49.8100 47.3554 48.8375 47.8067 45.4969 50.5550 55.1264 56.2411 54.1491 52.4811 51.5644 50.3307 48.7647 51.1290 51.4731 48.5085 51.9989 55.4551 55.6481 54.3751 53.4619 56.2222 58.1096 60.2404 58.1008 53.0919 53.9103 52.6255 51.3326 48.9183 45.3176 45.7126 43.4275 43.2386 52.8393 61.5558 56.7731 50.8861 49.4311 44.7675 43.6930 51.0502 49.9116 39.9169 40.6327 41.2570 38.5851 37.3949 40.7053 46.4972 44.4364 19.6854 106.6659 44.5202 44.6289 49.5237 53.3255 63.6088
10.9224 13.2186 15.9384 19.4872 21.4197 20.7911 22.4689 25.2196 28.1170 28.9759 27.7875 25.4539 26.1807 26.9563 26.7965 27.9125 28.2395 29.3314 28.8782 28.9649 29.4006 31.3077 32.4371 33.8942 37.6330 41.7448 43.9981 45.9174 43.1387 48.0892 78.9820 43.7240 34.1213 38.6514 36.6767 36.4386 42.8138 32.7310 28.5239 33.3452 28.6670 39.0357 15.9288 14.9255 16.0568 21.2527 36.7391 61.5811 61.2929 43.6957 34.2973 31.8583 29.6363 28.6284 30.8408 33.1015 34.3862 36.1058 40.8601 38.4263 37.5803 42.1231 46.5645 46.0945 49.0788 51.7383 48.6756 49.1310 46.3918 46.9853 48.4321 45.5196 46.8357 55.0206 56.9130 56.8247 53.5138 53.0076 51.3125 50.8288 52.2425 54.9919 51.6031 51.8548 55.7543 57.7125 58.7282 58.0773 58.1038 60.2608 62.4029 62.1865 57.3400 57.9811 57.0833 54.9824 52.6220 47.7794 48.3115 45.8207 43.2354 50.0796 61.1188 61.0743 54.1354 52.3865 47.6617 43.7049 49.1479 54.2721 43.8458 41.6680 42.5733 39.5590 37.4499 41.0996 43.5771 52.1303 33.9429 97.6161 58.4231 48.8979 54.4245 58.7102 62.9420
11.4299 15.3732 16.4261 18.3742 22.6283 25.0667 26.0706 27.2013 29.7937 33.7420 37.8532 39.3054 38.6481 33.3846 31.8101 29.8860 28.9597 29.2037 30.4717 30.1141 30.3438 30.2392 30.6134 31.7729 34.0977 40.6967 45.0360 51.3623 33.6662 59.7428 117.4956 53.2217 35.4401 44.2036 44.3466 53.1370 36.3232 19.2264 30.0798 43.5949 31.9229 29.5477 23.2057 18.0689 19.6021 20.7503 25.2301 37.6623 68.6349 60.3237 40.1408 32.9332 30.7323 30.4372 32.6037 33.7845 35.9367 36.9925 40.7711 38.3223 35.7342 40.6754 43.6669 42.6846 48.4698 48.0157 52.2876 50.9658 48.0356 45.3858 46.6831 45.8368 44.2444 51.6580 58.2117 58.1347 53.8646 53.7659 52.9964 52.5077 53.5215 57.2421 53.5374 52.0713 55.6050 58.4410 60.5313 62.0448 61.9146 63.1296 65.6579 66.0073 61.5936 59.9092 61.9980 59.2942 57.3604 51.9906 50.4833 48.6801 44.3571 48.5254 58.9083 63.2161 58.6254 54.7737 51.1673 45.1339 48.1616 55.6409 47.9395 42.3769 44.4250 41.4941 38.5489 40.1631 44.6607 53.5026 37.8961 104.2054 31.8684 52.0902 57.2660 62.2293 64.0040
12.1641 16.3563 19.0460 23.4329 18.5511 24.5727 29.0802 30.7850 31.5247 33.5920 38.7665 47.6247 53.9941 58.6186 57.4499 56.2495 52.9434 43.4681 35.5530 32.1197 30.4909 29.8834 31.2549 32.6941 34.2211 35.6227 42.9482 50.9685 44.7649 66.5558 33.1650 40.1677 29.6136 48.2731 70.0219 55.3300 26.9824 25.5792 30.7068 43.3695 34.8528 26.5650 24.2984 20.4995 20.1781 21.7968 23.1428 31.9369 58.7984 67.1801 51.9273 35.2257 31.9292 32.1180 34.1245 34.1170 37.3006 38.9157 40.6690 39.5260 34.6832 38.5344 42.6200 41.6223 40.9984 60.4733 44.2939 49.9646 50.3371 45.9373 45.5918 45.6872 42.8804 46.8240 54.6970 58.8033 55.8703 54.3137 52.6708 52.1210 53.3967 57.7705 58.0536 53.2697 55.2437 56.9997 59.3991 62.4756 64.2211 65.9279 68.0840 69.6275 65.9622 63.7028 65.4438 63.6595 61.8262 57.1676 54.2690 51.8075 47.1808 47.9601 57.8464 63.5168 60.1627 58.1905 54.6936 48.3405 47.8649 55.5456 53.6558 42.4855 45.2074 43.6183 40.1229 39.4279 45.7026 51.9821 59.1665 47.1835 93.9729 51.3218 61.2219 70.0713 64.5614
12.1155 17.4563 19.3535 20.7461 29.9110 21.6112 24.4176 30.5221 34.9489 35.0229 33.7192 35.2359 39.7494 48.3758 61.8366 66.9902 69.5095 71.6370 68.2138 48.3037 36.7751 32.5280 32.3468 34.0209 35.2029 33.4180 35.8341 43.1248 52.4083 41.5434 30.0590 31.5283 38.6945 13.9492 48.5934 83.8389 27.5008 25.6649 30.1750 38.4032 41.6683 26.3083 24.3561 22.7169 22.0715 23.0036 23.8207 28.5836 49.1268 69.3146 60.2591 40.1257 33.8259 33.0286 36.2405 35.1140 38.4184 40.5064 41.0520 40.9138 35.0473 36.3968 41.6970 40.7661 37.4697 69.1077 46.4676 48.0647 50.6425 47.2373 45.5097 45.1268 41.8378 44.5479 51.4333 56.4097 55.7618 54.5424 52.3470 51.0701 51.7263 54.7585 57.7661 55.2887 55.2270 55.8455 57.3422 59.9047 62.4190 66.5837 70.1058 74.8634 71.1098 66.1992 69.0641 69.1598 66.1101 63.1159 58.8831 55.1299 50.5177 48.1699 56.6816 65.2032 61.1828 59.8153 58.7929 51.6243 48.3075 55.9151 57.9796 44.4195 45.6073 44.9985 41.9846 39.5127 46.4428 52.9524 65.1841 37.9945 96.7375 60.2214 56.3217 72.1109 70.6586
11.3920 17.2917 21.3919 22.2505 21.0698 31.1503 35.9047 19.1338 22.2978 28.8051 30.9294 29.8859 31.0723 30.8546 32.8045 41.4137 50.6363 66.6818 78.3720 88.6193 71.9503 44.3076 35.5105 37.9076 39.1657 37.9374 34.4024 33.2119 33.9057 31.3742 26.7183 28.1736 38.6648 32.0996 35.1299 77.8393 58.7897 27.2752 29.5731 38.4413 42.0992 30.3282 26.2323 23.9471 24.1056 24.1511 25.8118 29.2519 37.7220 65.8694 67.0796 48.1172 37.6900 33.1415 37.3974 38.0535 38.4553 42.0906 41.8143 42.5652 36.1715 35.3472 40.9284 39.4243 35.4554 34.3716 76.3508 56.7532 49.6245 47.5289 47.0497 44.7221 41.6430 42.0015 48.8816 54.0617 55.4974 52.8668 52.3765 50.1987 49.8307 52.3742 57.7350 55.3296 54.1142 55.4424 54.8601 57.2112 60.3476 62.6653 68.7528 75.1739 79.7214 73.5523 71.9250 72.9452 70.3022 68.2580 64.6380 60.1756 55.0439 50.9449 56.3586 64.9692 63.3350 62.2349 62.1448 56.1369 50.1986 55.6317 61.2779 49.7713 46.4250 47.0073 43.0580 40.5647 45.7393 52.0685 66.2074 41.2818 88.8619 69.2465 66.7388 71.5102 71.5406
11.0496 16.0295 20.4954 24.2561 24.0713 23.2406 23.3085 44.8400 17.9241 18.3181 21.8983 25.4660 25.7886 28.1511 31.6641 34.7624 38.6493 41.3479 53.1045 65.9897 92.8001 86.5706 57.1691 40.8070 41.5158 45.1526 42.4058 34.2636 28.6734 27.4554 25.0696 26.8234 34.9231 41.0024 37.0846 63.9147 75.0481 45.3330 31.4403 37.2009 41.4115 34.6190 29.7247 25.5583 25.2391 25.6906 27.5446 30.0243 34.2068 58.4384 69.6865 56.0919 41.3396 35.6461 37.1328 41.0348 39.0472 43.1173 43.1283 43.6158 38.0025 33.7834 39.8090 39.8577 36.8506 43.4407 57.3070 69.3298 53.0457 48.3235 47.6142 44.6186 41.0729 40.8510 47.1303 53.3610 54.5530 52.3584 50.6004 48.3110 48.1749 49.3515 56.4927 55.9683 54.0972 55.8698 54.2867 54.5354 56.9631 59.2341 63.0964 71.1638 79.1142 82.3263 79.3168 77.5713 74.6342 72.1866 69.3510 65.9917 59.4633 54.3065 57.1739 65.3943 65.8458 64.3978 64.2004 61.4226 53.2235 55.3635 63.7700 55.4447 48.4892 48.7984 44.2487 43.6623 42.7909 53.1335 62.1965 50.0656 21.9033 106.8386 69.9591 77.9166 69.7906
11.0075 15.9588 20.4097 24.4869 29.6802 28.3066 23.1639 21.7218 17.2180 32.7568 13.0383 19.8074 26.1157 28.0831 27.2283 27.8389 28.7303 31.3332 33.9351 44.3599 64.5807 89.7111 95.9816 64.0498 46.1715 44.2884 48.5566 49.1485 36.5806 28.0341 25.2301 24.9088 29.9931 42.7971 41.2313 53.9723 73.9165 65.8350 41.1680 38.8550 42.8704 36.5099 32.4245 28.9490 26.7161 26.3371 29.0429 31.1767 34.1167 50.3128 70.7079 61.3275 44.5807 38.9359 37.1429 42.5717 40.3821 43.9077 44.9292 44.2294 40.6269 33.5922 37.7790 40.1592 38.0377 38.2773 65.5130 58.5899 60.2930 51.6402 48.1537 44.6078 39.4856 38.8233 44.9043 51.9918 54.6422 51.9033 51.3738 46.9757 45.5897 46.2418 52.3635 55.4380 53.8879 56.8798 55.9288 53.1673 53.5004 55.9944 57.0667 62.7228 71.9644 80.3738 86.0564 87.0159 80.2226 76.5638 72.6934 71.7317 65.7613 58.8755 58.9552 65.9639 67.6294 66.1334 66.7084 65.8762 57.1768 57.1229 62.8115 63.0639 50.6631 51.4994 45.3794 43.9555 44.5329 52.7793 58.1785 62.7551 27.0655 114.9686 76.6377 74.8002 71.8267
10.8013 15.6663 19.5339 23.2106 26.8259 31.8176 30.4630 26.7075 25.2901 18.6911 38.0752 29.9618 21.5427 20.1049 22.5399 24.4686 25.3165 25.7249 27.5510 31.0495 36.6345 58.4574 86.2370 103.6227 71.0818 48.1497 44.7668 50.2679 56.0277 41.9901 29.4822 24.9708 26.6127 40.3243 46.8854 47.8760 63.4780 75.2268 59.4835 42.2338 45.7126 40.4403 34.4108 32.0871 29.5724 28.3300 29.7489 32.1221 33.3218 44.3428 68.8940 68.2344 48.3147 41.3176 37.2896 42.9731 43.1067 43.7829 46.8356 44.2775 43.0152 35.3590 36.1073 40.5915 38.6287 34.0564 76.8810 53.3161 59.8363 57.9955 51.2794 44.7536 39.5344 38.6305 43.2165 51.2664 53.5406 51.1618 51.1805 47.7467 44.1513 43.2119 48.2898 52.1505 50.9264 54.0901 56.8256 55.4198 53.1046 52.4013 52.6165 54.0349 60.6907 70.0791 80.0681 93.4433 90.6703 82.3351 75.1639 74.8559 71.4228 63.6013 60.4524 65.7917 70.4370 68.8928 69.8962 70.0511 60.6926 59.5576 66.1659 66.6749 55.6290 54.1585 48.7835 44.5630 45.6921 49.2585 56.3360 67.5521 37.7150 47.4009 57.0331 76.5880 68.8706
10.4460 14.2010 17.2615 20.4198 23.3891 27.9949 30.7823 28.5183 30.5307 28.8350 20.2193 29.4969 43.9898 14.0051 16.4732 21.0759 23.5774 24.2213 24.1650 25.2667 27.7215 34.7677 53.1519 80.3496 107.3001 72.3278 46.6581 41.8388 50.6609 60.9319 54.0853 32.2922 27.0371 34.2433 49.1780 49.0682 55.2196 67.7200 72.4067 55.0397 49.2717 47.0563 35.9299 35.8409 31.9207 30.6394 30.1250 33.4090 34.0082 37.2779 64.9810 74.8139 52.2180 44.8240 38.1398 42.8160 45.8452 43.9063 47.8430 45.0941 44.1648 37.7642 35.8929 40.8276 38.1840 32.9392 35.0533 83.8455 68.1169 62.4355 56.4952 46.7017 40.0015 39.2337 43.1152 50.0673 52.7826 51.6360 50.2138 48.0616 44.9254 44.2857 44.5416 48.9376 47.6104 49.4678 54.3537 55.1991 54.5034 52.8117 51.0611 50.3333 52.2598 57.9445 66.9417 84.2798 99.6333 92.2652 80.8860 77.0357 75.9808 69.4075 63.5807 65.2282 69.9969 70.9032 73.3023 73.8267 67.1005 62.8688 66.2677 71.2521 63.4675 56.7285 53.0836 46.3027 47.1483 47.8168 51.0907 65.8210 50.4100 18.6585 80.7315 75.8947 65.8586
10.8454 14.5327 17.0602 20.1294 22.2432 25.7893 29.5378 27.8046 27.6830 33.5451 33.6447 28.5560 21.3840 52.2121 15.1057 22.0582 21.2940 22.7403 24.4902 24.4127 25.2258 27.2559 34.6384 54.1672 90.0047 103.1824 67.9671 43.7348 39.2905 48.9162 61.3831 60.3421 39.9430 33.1016 48.9546 52.3410 52.4970 60.5072 72.3575 65.2222 56.0332 56.7960 39.3500 37.8895 35.0605 34.5905 31.0447 33.0932 34.9879 34.4335 59.7455 75.2460 61.1749 45.7829 39.7164 41.4564 48.9061 44.2950 47.3841 46.3572 44.5355 41.4605 35.5323 40.4178 40.0472 34.6067 48.8610 52.8385 76.1511 70.4616 63.5580 52.3881 42.3349 39.3468 43.2648 50.9513 53.8529 51.4997 48.6366 47.3791 45.5085 47.6345 44.3889 47.0213 45.9203 44.6109 51.4649 53.1709 54.1785 54.1861 52.0305 49.9002 49.5336 50.8304 54.5545 66.9499 92.7680 101.3036 92.1923 81.4872 79.3768 73.9033 67.7089 66.3243 68.3178 71.0958 76.0821 78.2627 73.3322 68.4986 68.8065 74.0281 70.3460 60.5073 57.0912 50.4776 48.3556 47.9420 51.0569 58.6198 64.6018 23.9716 110.0119 67.2910 59.4041
11.1358 15.5391 18.1185 20.9501 23.1956 25.6124 28.3448 28.9623 25.2269 28.1208 35.6834 37.0213 31.8542 22.4940 54.8488 57.9948 15.6136 18.2909 22.3458 24.5731 25.6343 26.2143 28.7824 36.1326 59.6907 101.8803 92.6339 58.9658 40.3248 37.9458 45.4801 59.3753 62.5707 49.4375 50.0399 54.4573 55.8981 54.4302 66.3302 73.0323 57.8515 64.3822 50.6999 40.2068 39.4035 35.9664 32.6829 33.6957 35.2314 34.9179 50.9044 77.0744 68.0801 48.8673 42.2924 40.6509 49.9630 46.4452 46.2519 45.9850 45.4940 45.1605 36.2693 38.7195 40.9191 38.7088 44.2679 59.7948 60.5136 74.1143 69.4072 61.0436 47.7029 40.6206 43.3515 50.5376 57.0133 52.9032 47.5794 46.0972 43.5059 49.1077 48.0481 47.3876 46.5452 43.5886 48.2165 50.7870 52.0554 54.1312 54.1322 50.1445 49.5347 49.3267 47.9237 52.6339 71.4306 98.0407 101.6497 88.4332 83.5713 79.0170 72.6306 70.4555 68.9941 69.1891 74.7933 79.2754 78.3355 73.4578 75.2576 75.0544 77.8248 66.5910 59.8662 54.2235 50.1618 49.0120 49.2125 54.6890 68.6653 38.3226 48.4163 58.4608 47.4207
11.0593 15.8167 18.7987 21.5993 23.8934 25.8118 28.1003 30.5704 24.4600 24.6966 28.0774 35.7180 37.9059 34.7477 33.8144 30.2609 66.0619 27.8910 22.3388 22.4170 23.8963 26.0459 27.6872 30.8131 39.7625 77.7238 108.2093 74.7536 49.9438 37.9683 36.5896 44.5364 55.2307 61.1145 60.4643 58.9268 62.7800 56.0852 57.4996 71.5654 63.1604 66.4277 66.2397 45.9517 43.0706 40.0571 35.3061 34.2085 35.1951 35.7186 43.1258 72.5271 77.8765 55.1142 43.9798 40.6142 49.1350 50.2516 44.7271 45.0710 45.1799 46.9860 40.4433 36.8540 40.8570 40.3588 40.8923 74.8283 46.2053 66.9415 73.7041 68.1204 55.5941 43.9711 42.0920 50.7121 58.7586 56.5793 48.0080 45.0653 41.6395 45.6725 48.9573 48.8055 50.1496 46.5497 46.3904 49.2396 50.4880 53.0906 53.8843 51.1754 49.6555 49.7932 47.1023 45.7028 54.9652 77.3882 101.7389 98.8437 89.4830 83.5321 77.5087 73.7916 72.8492 71.0530 72.5741 79.6097 81.3753 76.4748 77.9357 83.8176 82.4739 73.6852 64.7966 57.5448 52.1256 51.1222 49.2841 51.9472 66.0865 49.3152 21.8949 73.1653 40.5996
11.1037 15.7383 18.5076 20.9587 23.7230 26.1222 27.9939 32.7780 27.0228 23.6107 24.3433 27.4627 34.3333 38.4056 38.8728 34.7638 25.7142 66.9253 69.3343 15.9135 19.5584 22.5971 26.2075 29.3217 33.4642 51.1432 99.6253 103.6754 63.1630 44.6559 35.6045 36.3782 43.0068 51.2432 62.0303 70.0927 66.0642 67.4468 59.0351 68.0725 65.5708 62.3328 73.6778 60.0413 49.3109 44.8971 39.1112 35.3266 36.1539 36.5386 37.9004 65.6602 85.7155 59.6168 50.5773 41.7124 47.1499 54.1750 45.5988 43.9628 44.7438 47.6564 42.9328 36.8542 40.7059 40.4105 35.9307 45.5893 73.8606 64.3907 73.8809 73.1176 63.6161 49.1683 42.9405 49.1165 59.7379 60.2103 50.9488 45.3718 42.0819 42.1013 46.8945 46.6019 52.7467 52.1610 46.5017 48.4897 49.7167 52.4533 53.3847 51.5347 50.1018 50.2660 48.0329 44.6662 47.5126 60.7477 86.1330 98.2224 96.1859 89.7096 82.9676 77.6016 77.0630 75.2992 74.6311 79.2108 82.9224 81.0047 79.7720 86.4957 90.4180 83.3717 71.1326 62.8080 54.9634 52.5758 50.2460 54.0928 59.5411 62.7066 24.4930 85.0011 32.3128
11.1943 15.7371 18.7985 21.0605 23.4381 26.7742 29.4736 32.3834 30.6345 21.1542 23.5228 23.5430 25.8515 31.3972 37.4070 40.9958 38.2839 35.4775 37.5636 79.1972 16.8023 26.8720 22.9319 25.1723 29.4069 37.5233 67.8559 112.0323 97.0038 59.4605 41.1826 34.8761 35.8367 41.0533 48.9852 64.4338 74.3758 81.6569 69.1239 68.2464 69.1903 56.3143 72.8236 70.0325 62.7085 50.2421 46.5988 37.4066 37.2118 38.0105 35.4222 57.2788 82.1290 75.0419 52.5781 44.2378 45.1074 54.6227 47.8350 44.3676 44.7727 47.5497 45.1787 36.0729 39.6737 41.1722 39.3680 54.5103 47.8088 67.2302 72.8579 77.3085 70.8028 54.8271 45.2949 48.1311 59.0193 64.9533 54.0866 46.1162 43.1295 39.7131 45.0483 43.7369 50.5059 54.5089 49.3609 49.1007 49.8527 52.6526 54.1611 52.1422 49.5140 50.5049 49.6512 46.5052 45.7188 51.9982 67.9466 88.1612 95.4547 94.4062 88.4833 82.2038 79.8743 76.8809 77.6178 80.8662 85.9498 85.6245 84.1507 85.3330 95.3732 95.5954 80.4147 69.2372 60.4773 54.7634 52.2934 54.5567 58.3008 67.7941 37.7964 94.3687 17.9816
11.3827 16.0845 19.4309 21.8999 24.2157 28.3319 31.9757 30.3129 42.5969 18.5953 20.0733 22.8690 22.4030 24.3195 28.2539 34.2854 40.3706 40.9085 38.5336 28.6891 82.9981 76.0766 19.2850 19.3366 23.0483 30.9139 47.1207 86.9262 119.1598 91.4338 56.3881 41.8813 34.8885 34.3669 38.0047 49.0215 55.9438 79.3493 91.5939 84.3372 76.0517 59.3233 65.3029 75.0613 71.7896 61.0941 52.6728 46.6129 39.7526 38.8556 37.0546 48.8785 79.8151 80.6952 61.0538 46.4116 43.7018 54.6718 50.5571 43.7677 46.8603 46.9390 46.1432 37.4338 37.3385 41.9174 42.3738 46.4025 62.8808 49.1408 68.5766 76.8631 79.2653 62.0549 48.5857 48.2954 57.1958 66.9988 60.5434 47.5287 43.9130 40.5134 43.1560 41.6400 44.8857 54.6549 52.6295 51.5661 51.3064 51.7971 55.3589 54.0573 49.9514 49.4659 50.1769 47.2776 46.5067 49.1275 57.0208 73.2483 86.7315 93.0219 91.9939 86.3052 83.5215 79.3456 77.4657 79.8914 85.0934 88.8304 89.2441 88.8090 96.4460 104.3003 96.7640 81.3357 69.0779 59.3115 54.3566 54.2547 59.5835 67.2759 50.4380 21.6944 96.0790
11.5224 16.2844 19.9062 22.3610 24.2460 27.6541 33.7667 31.1175 52.9258 26.5445 15.7356 22.7257 21.6358 21.6605 22.6999 24.9110 30.0717 37.4310 41.2895 38.4980 34.0355 45.5031 88.2894 15.5600 35.3798 41.9448 36.9810 55.3779 103.4207 124.3771 83.4643 54.9527 41.0979 34.1867 32.1802 39.5669 44.8375 53.6096 78.0882 92.7476 95.2470 75.2023 62.5366 72.5313 74.9635 72.1682 63.7525 58.0710 46.8538 41.1597 39.8186 42.0323 73.4033 89.2692 66.8680 50.8964 43.3738 53.1643 54.7767 44.5951 48.2401 47.0906 46.5956 38.6226 35.4274 41.6295 42.5260 41.5520 73.4640 42.7046 61.1079 74.2218 81.3609 71.6414 54.5378 48.8106 56.4189 67.7887 66.9807 49.9695 45.0461 40.9381 42.5048 42.7379 40.7860 48.1557 53.2236 55.1319 54.2582 53.2629 55.7517 55.2050 51.1220 48.5469 49.8692 47.7959 46.5500 49.2223 53.3302 62.7915 75.0375 85.6182 90.5113 88.0896 84.9402 82.2622 76.5215 76.5908 81.7713 87.2593 88.6359 90.5518 89.8646 103.9121 105.0112 93.7041 81.7361 68.7703 61.0808 53.1852 60.9503 63.8508 65.3293 26.7378 102.1558
11.6360 16.2589 20.2162 23.4553 25.0817 27.4617 34.0021 32.7943 58.1837 30.1591 15.0164 22.7840 23.7611 20.4540 20.9639 21.5115 22.6560 26.3093 33.2560 40.2757 39.8420 36.5220 27.6805 91.8547 86.3723 21.8329 45.3127 41.8697 59.0801 118.0112 121.6844 75.8816 53.0123 42.8448 33.8242 34.1447 39.3720 38.9691 54.9644 77.5874 100.7639 95.7882 69.2295 69.3847 72.7131 77.5876 73.1641 70.3419 60.1654 47.7416 44.0312 40.5443 66.2866 95.1476 72.5920 56.1392 43.9503 49.6418 59.2664 47.1024 47.7102 48.8261 45.3609 39.8660 33.8932 40.4856 41.6747 36.9212 65.8049 52.7880 57.4575 70.5658 81.1017 77.5402 61.4240 51.2217 55.2517 68.3248 70.7120 55.8476 46.0866 41.8063 42.0204 44.4086 39.1027 42.4534 49.5185 55.0344 57.3440 55.7004 56.5734 56.8156 53.3725 48.8302 48.5494 47.8464 46.4683 49.6517 52.7761 58.3128 66.2702 75.7278 84.4499 86.2267 85.4975 84.7958 79.0673 74.2191 77.4839 84.1839 88.3616 88.5856 89.8161 91.8876 108.2335 103.8057 92.8368 77.7411 68.9538 59.9306 60.5977 63.2778 72.4323 41.9316 25.1326
11.8899 16.1972 19.8745 23.3934 25.7927 27.7133 32.8485 34.9529 33.0403 68.5637 16.0204 22.3734 26.1452 22.8326 20.7273 21.2667 21.5249 21.5800 24.4014 31.3105 38.0630 38.8029 33.3773 22.1171 32.8073 85.6134 38.5595 42.0055 37.4759 64.2757 129.3479 121.5144 71.7146 51.3703 41.8903 34.2210 37.8627 32.7461 38.9130 53.0483 80.9510 110.4994 86.3587 72.7171 66.5060 75.1447 77.6588 84.1095 79.5230 61.6579 52.7143 42.2021 55.6210 91.3157 92.6524 61.3629 44.7530 46.3803 61.0658 50.0235 48.0072 49.9016 45.8770 40.4971 34.1990 38.6004 40.8846 45.6288 59.0758 47.6486 58.5867 67.5388 78.5571 82.9474 66.5783 54.9103 54.6029 67.1665 75.5590 60.1365 48.5012 43.0820 41.5299 46.0679 39.9052 39.5347 43.3539 51.3296 58.2632 59.0446 58.1053 58.6968 55.1667 50.6712 48.6487 47.9863 46.0933 48.8542 52.7713 56.6613 60.4745 67.9676 74.8596 79.5203 82.3336 85.8756 81.9576 75.6747 76.1989 80.5258 85.4559 90.1558 91.1627 92.7352 102.1034 105.3248 99.5174 88.4429 76.4581 68.0627 62.7189 61.6300 69.9386 63.9782 29.3710
12.5445 16.5017 19.3363 22.9532 25.9738 28.6127 32.8150 39.0186 34.2919 37.9907 68.3329 20.1122 26.6884 26.9039 22.6546 22.4374 22.8294 21.7449 21.9551 24.9942 30.6410 35.5404 36.9309 30.8479 23.5823 19.3145 73.6259 75.4339 22.4088 26.6684 68.1466 133.2602 126.8008 72.3636 49.7107 39.9500 39.0541 32.8889 30.1114 36.3313 50.4099 96.1427 106.7655 84.7297 68.0928 65.0296 72.4450 76.9233 91.0908 87.3247 71.7617 53.5489 52.5938 84.6942 98.9124 73.4836 46.7505 44.4798 60.1569 55.1046 48.4801 50.9107 45.5494 41.7064 34.5725 35.9410 42.0169 46.3058 52.9371 53.3632 51.4871 64.6939 77.0099 85.2044 73.3009 58.7989 55.4845 66.3585 76.0070 67.5149 52.5777 45.2805 41.1908 45.9519 42.1139 38.4033 40.7704 46.7796 56.2895 59.8460 58.7857 60.0583 58.6974 52.1651 49.4469 47.7702 46.2295 47.7095 52.5801 57.2868 59.9645 62.9615 69.9530 72.3547 74.8040 82.3929 83.8119 78.4164 75.7593 77.1616 81.7770 86.8212 92.0735 94.5161 103.7837 105.4990 101.8322 94.2208 84.2266 76.4490 69.3560 67.5343 68.9141 68.4257 57.7477
13.5307 17.4781 19.2309 22.3294 26.3985 29.8757 33.5351 38.9426 38.7123 45.7285 68.3854 41.4616 29.5427 28.7696 27.7514 25.8452 23.4595 20.7163 19.8011 22.1733 26.2976 30.6105 35.5472 36.1508 29.2615 22.4047 17.0837 28.1000 80.2777 14.9672 30.9669 76.0873 130.2893 126.8170 67.2217 47.1714 41.5002 36.1356 28.7893 28.1622 33.2221 53.9478 106.6590 105.1639 81.6057 60.6967 61.6917 66.4697 78.8661 96.8381 98.0783 79.8396 60.1052 80.8248 104.4690 83.5677 53.2353 43.8404 56.5114 61.7858 50.0146 50.6190 46.5679 41.6916 35.6921 34.1344 42.0163 44.1835 48.1214 66.5972 38.8423 57.8706 74.7083 84.6039 79.2550 64.7938 57.6240 67.1480 76.8884 73.3255 54.0778 47.9137 42.6993 45.0010 45.3131 39.5355 39.0435 42.7717 53.7372 60.6748 59.3718 60.1914 60.8171 54.9269 50.2355 49.2696 46.3178 45.8283 50.4975 57.3119 59.9679 62.0105 67.2068 69.6422 69.1476 74.8485 81.2273 81.0490 77.5597 76.3119 78.7801 82.3294 89.9098 97.3681 103.9955 107.7154 103.0185 99.1952 92.0751 80.0676 73.9059 70.4958 73.9585 73.0426 69.7495
14.3901 17.7460 18.2536 19.2884 20.7758 21.5159 22.7155 30.4936 39.8419 39.8915 64.2584 57.9204 32.5160 27.1508 23.7053 24.9392 30.6075 23.9009 25.3797 22.9457 25.7809 26.0021 31.3747 35.5443 33.4397 27.0989 21.7160 19.2207 17.5925 82.5309 78.0182 23.3169 82.5282 136.6221 122.3501 65.2170 43.0414 39.7667 29.3698 27.3317 27.6290 33.1846 63.2032 113.9024 110.2538 75.2540 59.9889 53.7220 59.1354 74.6016 97.5720 105.9832 88.7536 94.0662 106.4525 90.5378 67.8390 44.5887 53.0985 67.5723 52.3175 50.1828 47.2096 42.8729 37.1046 32.9939 40.6897 43.5359 38.9693 62.2807 48.2856 51.9023 69.9126 84.5454 82.4859 69.5798 59.1413 66.4855 79.5228 76.8498 60.2683 49.4540 44.2912 43.8909 46.5361 42.3716 38.3294 41.3004 51.0571 58.7112 61.1882 61.4624 61.1904 57.3941 51.1401 49.3567 47.7376 45.0279 49.4004 55.7377 61.9477 61.3561 65.1199 67.3960 67.7654 69.6487 75.3291 79.4268 78.0351 77.0766 78.3703 82.4374 88.0387 94.0538 102.7345 109.1593 104.6187 101.0604 97.1172 90.9994 76.2956 69.7856 78.3503 81.9754 81.4798
15.8579 20.5385 20.2083 19.6062 21.2746 20.9724 20.7679 24.0833 31.9120 40.9291 49.9601 69.9451 58.6130 37.7435 28.8486 30.1639 29.2514 26.8903 25.0694 26.4386 26.7675 26.8039 28.5476 33.3602 33.6076 30.2889 25.9312 22.3210 19.5544 15.9171 35.3368 88.7509 26.1839 82.3186 142.3548 112.8568 58.3276 44.9044 29.1622 27.0758 24.4088 25.6591 35.3420 68.7258 119.5709 118.7978 81.0983 53.4937 47.6041 50.6566 69.7815 95.0863 104.9343 115.3364 111.1917 100.9415 90.6585 52.8622 48.7120 69.8829 56.1600 49.9503 48.6342 43.2514 38.9784 33.0024 38.8350 42.6012 45.4361 59.5084 41.2011 50.6473 64.5539 80.1947 87.2886 71.9669 61.6724 65.9197 81.0330 83.0064 64.2440 50.9100 46.3226 44.1602 47.4679 44.9476 38.9300 39.0702 47.2372 57.1520 61.6543 63.1287 64.0661 58.9329 53.2735 49.5322 49.7312 46.1320 48.4536 53.6672 60.0032 62.5077 64.6248 65.1567 66.0157 67.1101 70.3116 74.8892 76.8312 79.5378 78.9695 80.5297 88.9985 91.4297 98.9359 108.5824 109.9049 101.5715 96.7742 95.0650 86.6219 73.0089 74.0521 81.3257 99.5875
17.3901 22.7870 22.9467 20.3320 21.5458 23.2256 21.8520 23.2830 28.9550 37.4910 40.2043 63.5217 68.6495 48.3313 35.5478 32.0072 33.1804 30.3847 27.5622 28.0171 29.3430 28.0435 28.2927 31.1929 33.0540 31.3086 28.4477 26.1084 23.1510 20.4056 20.3757 19.8522 92.0416 102.9192 75.2066 144.5445 102.5097 62.4495 32.5238 27.4524 25.1208 22.3118 23.9239 32.3519 66.7717 121.1057 130.6415 93.9132 60.4110 46.7921 50.4854 68.2958 89.3161 114.4530 127.8790 109.6626 107.9836 82.0416 50.2099 67.1147 62.0925 50.8194 50.0156 43.8197 40.1395 34.5972 36.4787 43.8130 46.4537 50.2304 55.3121 39.6004 59.9259 76.8327 86.4916 75.6432 63.3885 64.6880 80.4079 86.9140 73.9170 55.5067 48.7198 44.9693 48.1141 46.4780 41.8265 39.4163 44.6750 54.1133 60.8024 63.3193 65.5523 64.3834 55.8219 51.2073 50.7115 48.8710 47.5366 50.4718 55.6471 60.1074 63.0187 64.9311 65.1087 66.0186 68.6638 72.0086 73.5703 78.1013 78.3494 80.0983 87.2080 87.8066 90.0504 100.2477 104.7824 98.8036 92.9262 96.6259 85.6107 73.0863 74.8938 87.5955 108.4495
18.7109 25.0502 25.9768 22.0752 21.6082 24.0083 24.0310 24.5410 29.3949 34.2645 33.6541 59.1318 66.6937 59.9616 46.6163 37.3583 35.6997 34.7040 30.6566 29.8973 32.5136 29.9315 28.4397 30.1981 32.1132 30.8735 28.8929 27.5781 26.1077 23.9556 22.0910 20.8077 18.1459 41.5754 148.5995 67.3168 118.3085 92.5586 48.3048 27.2419 27.2017 22.6980 20.5573 22.7304 26.7556 45.6938 103.6114 133.2456 108.7789 73.0258 57.1360 57.6525 74.0378 93.1865 123.5025 131.5636 128.1077 125.7765 69.9100 67.6690 68.6377 53.4230 52.2006 44.2598 41.4984 36.5883 35.4678 44.4526 44.8640 47.9666 60.4488 39.3181 54.5770 74.1429 85.2897 75.5678 64.3587 63.7272 79.6954 86.2862 81.7132 61.7119 52.7197 48.1518 48.6949 48.3937 45.4333 40.6335 43.5970 53.0975 61.0648 64.0685 66.0406 67.4252 61.3402 54.0815 51.8416 50.2386 49.6761 50.5522 53.5057 57.6950 61.0144 63.6382 65.0445 64.7264 66.0103 70.9964 72.6198 76.4085 77.9999 81.0922 88.9925 95.8978 97.2238 78.9818 103.2723 107.2848 105.5146 88.3290 89.5281 70.9599 73.8349 91.6326 112.4698
19.5364 26.4462 29.3821 24.1788 22.6988 25.0327 26.5553 27.1433 30.2884 34.1405 26.3157 41.9344 68.2033 67.9884 55.6911 44.7961 39.6904 39.0333 34.6379 31.9233 34.2177 33.0564 29.3681 30.4473 31.9977 30.8169 28.5911 28.2923 28.2511 26.2731 24.5795 22.7989 21.6918 21.0684 21.0137 160.5161 198.0090 63.5102 71.6278 40.2640 28.7074 24.8274 21.4220 20.7119 20.3311 25.5895 48.0743 97.0801 123.3593 112.5411 87.7774 70.4531 74.3888 91.5768 120.9089 142.2386 151.7541 175.7690 141.5100 94.1236 80.8657 57.6526 53.0649 46.8903 41.9760 39.0086 35.3313 44.0845 45.9638 46.6748 60.9061 39.7779 52.7635 70.8195 84.0721 77.7293 64.5606 62.8589 77.0266 85.5207 84.6201 72.9756 59.2558 53.4227 50.6508 47.4804 47.4971 45.7754 43.4024 52.5424 61.5030 66.2858 68.7845 69.2869 67.1876 59.0620 54.7799 52.1099 51.0700 51.3053 53.2195 55.9411 59.5489 62.3760 64.8253 64.4857 64.2773 68.5623 72.9221 76.0750 78.8803 83.2704 89.7054 103.8019 108.2784 93.9899 100.9909 102.2263 112.8474 106.8808 86.9471 82.8919 75.4640 97.5964 112.7565
19.9860 27.2393 31.0769 27.6719 24.7940 25.6695 27.8506 28.5483 29.0136 29.4474 29.5252 37.8561 58.0806 64.8046 62.2159 52.0013 44.5699 44.1150 40.4069 35.5282 36.3962 35.8055 31.5257 30.9115 32.5408 31.4914 28.4190 26.6886 28.1600 27.3763 25.1912 23.5051 22.3631 22.9838 21.5818 17.8402 34.7883 212.6385 51.5588 52.6467 31.1812 27.4260 23.0895 22.6215 20.5823 21.2625 27.6856 49.9126 88.7755 117.7243 114.4017 106.7209 98.9761 98.4614 117.1985 148.5902 163.8726 190.1419 209.5470 184.5103 140.1497 93.4735 68.8115 48.4355 45.5256 40.7950 36.5914 41.7903 47.8208 53.0576 53.9129 37.8317 52.2446 69.7200 84.5126 80.0742 66.5159 64.1555 72.5615 83.8193 86.1352 80.9603 69.5302 61.8640 56.8698 50.2367 49.0027 45.3367 43.8939 44.8378 52.5607 66.3232 70.5790 71.8748 70.0060 65.4992 58.9500 55.3279 52.9914 52.5396 53.2961 55.4462 58.2379 60.8639 64.5851 66.3224 65.3542 71.4481 72.7259 80.9143 87.9794 88.5181 93.2352 115.8463 124.9441 124.0496 107.9961 109.7651 108.1017 113.1350 115.0681 86.7413 83.8961 99.1693 124.2590
20.2388 27.5004 31.3276 30.6364 28.0570 21.7556 29.5002 31.2533 36.9821 43.1313 44.2041 51.8944 46.3957 56.6536 62.8319 59.8163 49.7345 48.4265 46.9252 39.7716 38.1908 38.7631 34.9187 32.5021 34.1577 33.1065 29.2480 27.4594 28.5450 28.5983 26.2768 23.8887 22.2381 22.2966 22.6826 21.5590 19.7507 20.7190 217.3799 225.9619 25.4451 26.8193 29.3851 24.4214 23.3746 22.2214 22.3833 30.8413 53.5039 83.1224 104.3005 102.7174 110.0881 109.0505 118.6875 128.6545 159.4368 190.3391 226.9735 245.4721 233.1566 207.0513 165.1768 104.5641 57.7678 48.3092 40.3253 42.1199 49.5335 54.6661 51.4173 38.7614 46.1905 69.1849 89.2519 84.5968 76.4064 69.9768 71.3626 79.0835 82.1905 83.9797 77.1924 68.8074 62.9024 59.6240 52.3705 50.6993 47.9650 47.4244 48.3751 55.5844 70.3516 75.3185 73.7402 69.2875 64.5134 59.2619 56.1161 54.3461 54.6123 55.5743 57.8257 62.1269 68.3718 75.8873 76.2487 79.7261 81.4033 80.6289 92.0763 96.7169 97.5031 112.8088 118.3340 154.3114 170.9739 194.6153 168.9703 144.9994 143.6847 133.7181 102.9994 101.1090 143.7128
20.6900 28.6796 32.3139 33.3130 31.4775 37.7031 39.8622 29.1780 27.5212 26.6276 39.4539 55.1314 65.3574 66.9766 78.6292 72.2115 60.4242 54.3543 55.4296 47.9129 40.6990 40.9688 38.5763 34.8976 35.7759 36.1398 31.7448 28.4420 29.6343 30.5337 27.8195 25.3919 22.8349 21.9752 21.9783 21.7216 21.9984 20.9050 17.4582 14.9824 228.2940 16.8927 24.5830 32.8442 27.7200 25.2902 24.3516 24.3645 37.8555 59.8921 79.1497 102.0573 99.4724 116.5044 130.7311 136.5503 152.2756 160.6687 170.1923 218.5802 261.0873 260.7549 282.5083 270.0394 196.8198 103.0037 63.0658 48.6031 50.3871 56.5058 57.2160 46.3947 37.2418 49.7000 82.4996 97.6834 84.0071 78.5901 75.8319 78.8691 86.0398 80.8171 80.0935 79.1101 68.3617 63.9188 63.3036 62.3336 58.3330 57.9222 58.1644 52.7558 58.8134 74.7471 75.5974 73.5126 69.0672 64.6601 60.4059 58.6497 59.1437 60.7222 61.2782 65.1417 69.1637 79.4572 88.2217 91.7201 94.4559 94.2562 97.0550 106.7632 114.0738 116.1462 141.3169 145.5776 138.1949 116.2671 176.3262 162.6956 122.8327 144.8819 127.3656 119.2474 168.7793
20.6701 28.2878 32.6254 33.7940 30.6642 25.6011 38.2745 47.2245 42.5538 53.2673 81.6017 108.0176 127.3091 129.1772 125.9952 135.0086 136.2814 128.2826 115.2399 90.9915 56.1148 46.0007 42.6493 37.7451 36.5524 38.8355 35.9560 31.1799 31.0177 32.2150 30.3668 27.6507 24.8518 23.2717 22.8329 21.9150 21.8412 21.8239 21.8618 18.5058 16.1501 230.7136 27.6189 20.6629 30.3243 51.3940 50.4182 34.2294 64.1225 77.7698 94.7007 96.6387 114.9053 132.3739 134.1116 147.3544 148.8094 143.7020 149.0675 163.3555 183.5093 231.9789 216.1738 243.7644 309.6614 277.2859 239.2902 173.1008 92.1137 70.5238 52.4605 56.5202 67.6734 72.5205 70.1673 87.1743 100.6378 84.6008 79.8079 78.1602 84.3786 89.0585 83.8159 81.1238 80.4597 77.6803 68.9130 70.3962 73.1902 71.1462 69.2289 67.1791 57.0339 67.7916 74.3001 75.5466 73.5080 70.8484 70.4305 65.8551 65.1515 66.1934 69.1799 70.0302 73.4049 79.0724 88.5092 97.9051 107.4811 112.8191 116.1331 129.0440 140.9357 165.1017 148.0390 144.1733 168.4847 176.4354 173.6827 188.6532 171.9175 136.5956 145.1452 134.5927 203.2888
17.5645 26.5094 32.4183 35.0855 39.6659 47.4107 58.9081 73.3234 101.8579 116.4074 106.5473 94.1376 85.3055 94.1052 107.9088 122.2423 132.7781 154.1537 166.8424 157.6081 150.5964 108.2227 61.1501 44.2366 37.9645 39.5758 40.5811 35.7146 34.1232 35.3353 33.8549 30.9848 28.1470 25.8966 24.8818 23.4371 23.0823 23.7159 25.1694 27.5073 28.6668 35.1292 16.9831 83.3542 72.5228 104.9218 132.2025 119.1544 117.6996 124.7769 118.4579 137.3065 143.2611 138.4444 152.5707 150.7128 143.1739 130.6294 135.9100 140.6067 149.7118 164.6420 203.9114 218.8860 236.0922 267.3360 223.2295 278.4613 225.6379 146.2218 133.2942 141.1093 119.0615 111.1575 107.9963 93.3536 88.8209 110.9807 98.7640 94.2503 93.9998 96.3274 95.5162 90.5432 86.1668 84.1137 88.3525 86.9176 86.4644 90.4158 92.1892 83.5423 76.6446 70.0926 71.0435 75.9502 79.3456 75.1811 75.7160 75.5214 74.4668 74.0283 78.7524 87.7671 91.4283 93.8112 98.4504 105.5937 116.3092 128.7614 141.0606 143.3855 157.1628 167.5308 177.2026 180.1405 176.7080 196.3065 196.1554 211.3828 210.9282 198.9069 174.3908 171.0664 255.4442
17.1439 30.7987 44.0717 56.5124 66.3606 75.1090 79.8510 80.9065 68.4111 38.3765 29.7166 29.1015 27.0774 25.6162 26.7983 34.4755 51.2367 64.8774 90.0049 139.9559 176.6719 213.2556 219.2715 159.5532 62.9831 43.1758 41.4510 38.4769 35.6819 37.0444 37.0317 35.1287 32.2417 29.5061 27.7752 25.5506 23.9401 23.8016 23.9298 29.6780 64.3898 114.5912 121.3203 99.5386 111.6296 116.1866 124.5320 163.8781 169.2085 150.6988 172.4573 169.5843 167.5831 169.2179 154.2310 145.7770 135.1831 127.1738 130.9033 128.9590 129.7773 140.3446 151.6411 180.9589 206.8801 263.6597 295.1755 263.9013 292.7229 242.5112 155.5182 76.4800 120.9710 143.0622 168.8324 169.1929 143.1077 134.4515 135.9704 128.3287 125.5253 124.4124 124.1365 119.4930 110.1888 106.2960 97.7005 104.4217 110.0536 115.1756 119.1375 123.3235 105.8496 92.5236 90.1780 87.4140 84.4115 86.4469 85.6933 87.0328 92.5259 99.1141 105.1713 105.8549 109.4957 111.2322 116.8150 123.5503 135.1160 149.9288 160.3311 186.4286 191.4795 194.4948 191.2536 182.8301 179.6368 165.8498 195.4620 197.3732 222.9560 226.2551 219.1369 209.8531 316.8365
17.2862 27.4644 35.1587 41.5541 43.0647 41.3523 34.7988 30.3109 27.5542 26.4366 25.8026 25.7176 25.4562 24.6773 25.1374 26.1417 27.5097 27.6823 28.7811 29.9407 31.2934 33.0069 92.7303 195.4280 240.6775 208.1922 153.2077 64.7721 39.9495 36.2031 37.3445 36.4007 35.0277 33.1239 30.8545 28.4727 26.5619 25.3675 47.8811 116.7932 163.0232 157.6666 151.0812 150.4827 155.5982 82.1759 137.0696 138.5069 157.5050 188.1077 173.6041 164.2388 160.6875 144.4915 141.9662 135.6773 129.6759 119.6108 115.1808 116.0099 113.8761 113.6275 123.2458 131.3825 147.6198 168.5244 221.1388 274.9258 305.0298 345.3869 258.4588 150.0679 152.8029 223.8314 235.5654 244.6055 231.7549 211.0099 199.0764 193.1412 183.5520 177.4954 171.0311 160.5522 155.1958 141.3027 144.3480 145.8092 153.7476 158.2097 158.6315 162.4330 161.9308 134.3407 113.9519 109.1691 108.6224 112.7905 119.6482 121.4480 127.4758 127.0668 126.4729 132.6805 142.1324 150.4591 161.3245 172.3603 186.8673 191.8459 207.1671 194.4524 191.0201 182.0856 168.1358 165.3519 160.9135 167.2766 155.9780 179.0982 187.1507 212.8358 215.6801 201.4131 363.9538
17.3694 24.3857 27.5089 29.0196 29.9760 29.2149 28.1165 26.3332 24.9456 23.9703 23.4187 23.8060 24.1804 24.1629 23.9454 25.1115 26.4432 27.3836 28.1547 29.1277 31.2166 32.2435 33.5620 34.5951 45.2064 145.3515 224.2714 257.1400 263.6597 220.2117 161.8938 128.7488 79.7851 80.1668 95.3087 120.3042 148.8881 178.7850 207.2484 195.4749 175.5480 164.8388 159.4288 157.5274 160.0178 188.5045 129.8412 115.1330 151.9772 131.2676 135.7999 136.6860 116.3488 125.2625 122.6256 116.0443 108.3652 101.9360 99.5513 94.2617 92.8229 92.7348 91.2591 88.2991 91.3905 99.9531 116.4593 153.9142 213.1421 259.2737 372.9642 248.1650 280.4408 298.4256 274.3168 283.2128 294.4721 287.4495 280.5844 273.2965 264.6011 257.6577 248.8312 241.2740 224.4094 216.2725 197.9776 211.3523 209.6458 214.3619 221.3486 210.9373 210.4763 203.2955 177.4442 165.4069 165.8511 170.8107 181.2975 184.1735 185.1712 183.8822 178.6135 195.9249 212.5750 215.3275 212.1186 211.8457 201.6922 200.0554 190.1007 166.7412 169.8461 142.8839 135.6297 129.0343 136.7854 139.4962 167.8053 176.6660 194.2003 203.2966 217.4423 223.1722 410.4944
17.5361 23.3934 24.9515 25.7906 26.9809 26.8707 25.1839 23.6093 22.4517 21.4847 21.7390 22.0330 22.7693 23.0001 23.1800 23.7014 25.1461 26.2662 27.2040 28.3221 30.0025 30.8870 32.1406 32.6277 33.2270 34.0550 33.2961 33.5512 34.5729 159.5954 232.3842 255.0033 262.8742 236.1375 214.0792 203.0875 188.3976 183.8701 166.9233 152.9596 143.3882 133.1499 134.9118 141.3364 133.3500 145.2977 169.3816 162.1832 84.4106 84.6975 101.4283 80.1089 97.3293 90.3176 84.8129 86.2286 82.2811 81.3385 69.2528 71.1975 72.6779 75.0642 68.5371 65.8933 63.6042 58.3782 53.6209 60.6020 86.5199 137.0326 264.6602 368.7856 322.0430 265.7191 254.4277 254.5335 268.2716 296.8122 301.5280 305.6108 304.8962 302.7385 302.9499 297.2763 294.7058 287.4769 272.6073 255.9589 260.0100 260.3398 264.2191 278.5176 283.7551 276.7845 276.3890 260.9811 251.3790 248.0564 236.8291 238.7063 232.3372 230.1449 226.8887 218.0203 205.0308 199.0874 193.7197 175.8457 185.2111 183.5591 154.0588 165.2960 143.1398 156.8319 150.7647 150.4699 133.5497 121.8185 110.1332 128.2877 151.3487 175.4787 179.0668 192.6699 451.0190
16.7114 21.4315 22.4145 22.5423 24.0524 24.9906 23.1417 21.3895 20.0405 19.6655 20.0972 20.2250 21.2981 22.2052 22.3351 22.6405 24.0847 25.6493 26.0226 27.3517 29.3109 30.1883 30.9376 31.2508 31.9355 31.9004 32.1988 33.0073 33.6324 33.6657 32.4930 32.6013 84.5004 151.9333 172.7820 171.7103 163.4386 150.0044 130.4126 119.0134 112.5177 107.5000 103.5964 102.9472 108.5240 105.1575 103.2796 95.8403 103.7553 88.2608 18.5366 56.5237 47.9909 56.0016 57.4374 53.5619 58.4566 57.5040 56.0041 55.3410 58.2893 58.1765 53.5926 48.4988 38.4608 33.3585 32.6045 37.9272 40.9049 52.2952 68.0243 154.2227 154.5464 152.2483 183.9520 180.6581 205.9545 218.6313 234.1608 249.2646 266.5623 289.5644 302.7030 309.9695 318.6554 310.1231 304.7654 292.7319 282.9293 278.5946 275.7626 280.2080 293.9360 309.7637 316.7762 319.7191 309.6315 285.7137 275.3524 259.3245 252.3905 244.5359 231.5139 198.1166 181.8781 177.4922 176.3421 175.6463 159.3337 119.4970 132.3839 119.2343 120.0347 106.7090 115.0605 123.0408 144.6904 123.7452 76.9594 63.3206 74.8897 102.8214 139.7355 160.1012 472.8488
15.1681 19.2044 19.8244 19.9663 21.4056 22.5792 21.3341 18.8837 17.8609 17.5641 17.8533 18.5024 19.6504 20.8424 21.1537 22.0140 23.0909 23.9243 24.6503 26.4371 27.8106 28.8453 28.8886 29.1258 29.3172 29.6449 30.0349 31.3975 32.6179 31.8623 31.5365 31.4880 30.6948 35.8798 55.0280 69.1637 70.1244 72.9105 78.5618 78.3280 73.8162 68.1143 64.6437 65.3824 66.8962 66.1062 62.6729 61.7930 54.0336 53.5059 52.1289 15.7569 37.4869 32.3944 33.2001 40.8514 40.7471 39.5434 41.4198 41.3772 40.8906 39.4810 32.6430 28.9299 26.8641 26.0475 26.1161 27.4723 26.5188 25.9967 24.4075 31.6422 59.9791 91.9612 97.9438 114.3604 103.3213 94.4173 106.7422 125.7535 168.6505 160.8482 192.0601 220.0311 235.1355 254.7961 270.6621 265.5899 259.0707 244.8661 239.7480 238.7622 246.1787 266.6371 282.0865 279.3069 273.5564 269.4472 257.4056 234.3474 215.2542 211.6046 207.6059 215.6658 216.1247 212.6550 184.9382 173.5604 139.8841 132.3703 97.9756 91.8823 64.8825 72.8320 87.1138 105.3820 76.1633 141.3508 181.5226 208.2021 60.7049 63.4714 103.6682 258.1543 451.5351
13.4231 16.5290 17.2701 17.6311 18.7352 20.1674 18.7525 16.5391 15.3404 15.4041 16.3464 17.4102 18.7146 19.9494 20.8454 21.4945 22.5989 23.6770 25.2474 26.4945 27.9166 27.6912 27.5822 27.6712 27.8723 28.4399 29.0459 29.9303 29.6034 28.8542 28.4581 27.0653 26.1480 25.6291 25.3603 26.8271 28.6467 29.4960 29.9024 31.1214 30.6402 31.6228 37.1491 38.1500 38.1741 42.1475 40.7039 39.3285 40.2740 37.2520 32.8116 35.1074 21.6167 22.8905 27.7286 26.0700 29.3575 29.4499 28.4369 27.4640 27.7804 27.6910 25.7592 23.6895 22.6709 22.4556 21.6200 22.3123 22.3488 22.6132 23.1042 25.8991 30.8634 19.0710 30.7566 37.7964 59.0405 67.2669 79.3127 95.8795 46.2847 88.7346 76.8873 81.7616 104.2973 133.2678 147.0969 173.5213 181.5858 195.5946 204.9652 212.0542 215.6060 212.8440 219.7805 236.2140 280.1978 262.4123 253.7067 260.0179 264.5935 266.4075 259.6797 302.6571 242.1767 216.0315 191.4117 189.4956 165.4556 129.5935 90.3705 84.4142 91.7990 204.5338 133.4681 114.4235 93.5299 72.6466 73.8917 29.1463 11.4840 10.7781 59.6937 211.9204 474.8106
11.2605 13.7173 14.8211 15.6546 16.6269 17.5193 16.5662 15.0411 14.4148 15.0303 16.1949 17.7249 19.7857 21.1439 21.3586 22.0632 23.7502 25.8444 26.8972 27.8613 28.0120 27.8909 27.3147 27.1059 27.9488 28.2436 28.3394 28.0697 27.0113 26.3272 24.2965 22.6346 21.9543 21.9188 21.9951 22.8048 23.3143 23.9354 25.7974 24.6560 24.2426 22.6490 23.4176 24.4619 26.1807 25.1468 21.3042 19.0990 18.5223 19.2470 19.7340 23.5912 24.1149 23.8990 13.7189 27.1597 21.1654 21.5936 19.2805 19.9523 21.8745 21.7655 20.8861 20.2302 19.5679 18.9667 18.4925 19.0404 19.0334 18.2444 19.1950 19.7749 20.7906 18.5270 17.0037 21.2627 24.2809 28.5300 29.6889 25.5178 29.6859 34.3145 52.8061 56.3213 56.1804 68.5855 91.3011 92.7615 108.9886 120.3190 129.1605 128.7484 125.8006 133.2637 131.2107 151.5334 163.1149 215.2317 257.6589 272.2561 261.5626 251.8244 254.9221 140.1258 201.6879 242.7070 121.2847 117.4695 155.6438 165.9657 443.3344 425.8723 396.9431 299.1354 321.7169 281.0710 168.1448 10.0000 38.5207 35.3054 23.8754 15.3613 34.3475 189.9578 486.5803
